# .PCD v0.7 - Point Cloud Data file format
VERSION 0.7
FIELDS x y z rgb
SIZE 4 4 4 4
TYPE F F F F
COUNT 1 1 1 1
WIDTH 1000
HEIGHT 1
VIEWPOINT 0 0 0 1 0 0 0
POINTS 1000
DATA ascii
-1.4894494 -4.7730012 28.299999 2.3418052e-38
3.7787519 -3.2742991 17.700001 2.3418052e-38
1.1754931 -4.8598576 29.299999 2.3418052e-38
-4.9164953 0.90998667 28.6 2.3418052e-38
-4.9633985 0.60388333 24.9 2.3418052e-38
2.981123 4.0140886 6.1999998 2.3418052e-38
1.8496217 -4.6453094 29 2.3418052e-38
4.6310105 -1.8851374 26.299999 2.3418052e-38
0.34558976 -4.9880424 24 2.3418052e-38
4.2734313 -2.5957246 17.200001 2.3418052e-38
-4.8939366 -1.0243949 26.700001 2.3418052e-38
4.8047686 -1.3835453 12.9 2.3418052e-38
-4.4259233 2.3261991 23 2.3418052e-38
-4.8846617 -1.0677451 22.299999 2.3418052e-38
-4.258697 -2.619828 23.5 2.3418052e-38
-4.1544046 2.7822511 10.2 2.3418052e-38
3.0739231 -3.9434752 25.799999 2.3418052e-38
-4.9389114 0.77920073 26.700001 2.3418052e-38
1.2613378 -4.8382878 25.6 2.3418052e-38
-4.1789093 2.7453079 14.2 2.3418052e-38
1.6575423 4.7172613 27.299999 2.3418052e-38
4.9936786 -0.25134894 11.9 2.3418052e-38
4.743957 1.5795165 3.7 2.3418052e-38
3.9471889 -3.0691531 22.4 2.3418052e-38
-4.5858178 -1.9925544 27 2.3418052e-38
3.5996125 -3.4702723 22.6 2.3418052e-38
-3.4543076 -3.6149356 8 2.3418052e-38
4.7527823 -1.5527588 27.299999 2.3418052e-38
4.2268124 -2.6709659 17 2.3418052e-38
4.9541297 0.67571998 18.1 2.3418052e-38
-4.8091936 -1.3680845 22.5 2.3418052e-38
2.0275409 4.570457 4.5999999 2.3418052e-38
-4.9733028 0.51600289 12.9 2.3418052e-38
-0.09647458 -4.9990692 25.700001 2.3418052e-38
3.6715171 3.3941071 19.5 2.3418052e-38
-1.6839563 4.7078967 4.5 2.3418052e-38
-2.3315485 4.4231076 26.700001 2.3418052e-38
4.8612404 -1.1697612 16.4 2.3418052e-38
1.7671009 -4.6773233 5 2.3418052e-38
-0.38972694 4.9847879 10.8 2.3418052e-38
4.391798 2.390002 27.799999 2.3418052e-38
4.4536734 2.2726183 8.3999996 2.3418052e-38
-4.1544046 2.7822511 25.1 2.3418052e-38
4.2268124 -2.6709659 19.9 2.3418052e-38
4.2116938 2.694742 6 2.3418052e-38
-0.080470026 4.9993525 16.799999 2.3418052e-38
4.5857882 1.9926227 11.2 2.3418052e-38
-2.4094806 4.3811417 18.6 2.3418052e-38
-2.5248911 4.3156605 23.9 2.3418052e-38
4.6310105 -1.8851374 7 2.3418052e-38
-4.8846617 -1.0677451 17.799999 2.3418052e-38
0.036216062 -4.9998689 20.1 2.3418052e-38
0.30149981 -4.9909015 19.200001 2.3418052e-38
-0.80105126 -4.9354148 5.1999998 2.3418052e-38
2.5249555 -4.3156228 8.6000004 2.3418052e-38
4.425889 -2.3262649 24.1 2.3418052e-38
4.1788688 -2.7453701 8.8999996 2.3418052e-38
-3.720248 3.3406219 11.9 2.3418052e-38
2.8371627 4.1170993 12.9 2.3418052e-38
-4.433383 -2.3119502 21.700001 2.3418052e-38
1.6575423 4.7172613 7.0999999 2.3418052e-38
2.7872734 -4.1510367 27.5 2.3418052e-38
-4.1137509 -2.842016 12.7 2.3418052e-38
3.7013142 3.361588 25.6 2.3418052e-38
3.7496743 -3.3075583 15.3 2.3418052e-38
4.6310105 -1.8851374 6.5 2.3418052e-38
1.6004242 -4.7369442 8.3000002 2.3418052e-38
-2.8371015 -4.1171417 22.4 2.3418052e-38
-3.641331 -3.4264717 17.1 2.3418052e-38
-4.9921913 -0.27933434 11.9 2.3418052e-38
-3.389775 -3.6755171 27 2.3418052e-38
-2.3705418 4.4023323 20.799999 2.3418052e-38
1.7407873 4.6871805 4 2.3418052e-38
-4.3625636 2.4429572 9.6000004 2.3418052e-38
4.5793858 -2.0072935 21.799999 2.3418052e-38
2.4621758 4.3517456 14.6 2.3418052e-38
4.5680017 2.033067 12.1 2.3418052e-38
-3.641331 -3.4264717 17.9 2.3418052e-38
2.5006626 4.3297443 16.4 2.3418052e-38
-4.9776683 0.47203654 24.1 2.3418052e-38
-2.8601944 4.1011324 19.299999 2.3418052e-38
4.9703164 0.54401791 13.4 2.3418052e-38
0.84470475 4.9281311 28.700001 2.3418052e-38
3.4745147 -3.5955176 5.5999999 2.3418052e-38
-1.8646235 -4.639308 29.1 2.3418052e-38
4.4931717 2.1934922 26.5 2.3418052e-38
-0.18495262 -4.9965782 13.6 2.3418052e-38
-0.052296918 -4.9997263 25.1 2.3418052e-38
1.4318144 -4.790606 10.7 2.3418052e-38
4.9653153 0.58791649 17.4 2.3418052e-38
0.18502699 4.9965754 15.8 2.3418052e-38
-0.95932895 4.9071059 13.5 2.3418052e-38
-3.9471431 3.069212 19.299999 2.3418052e-38
-0.52201545 4.9726753 12.8 2.3418052e-38
4.3044438 2.5439663 11.1 2.3418052e-38
1.8905973 -4.6287842 12.9 2.3418052e-38
-0.257312 4.9933748 16.299999 2.3418052e-38
0.40583351 4.9835029 11.3 2.3418052e-38
-4.8996162 0.99687552 20.6 2.3418052e-38
3.6108596 3.4585681 22.799999 2.3418052e-38
-2.7268488 -4.1909781 28.799999 2.3418052e-38
2.2528191 -4.4637213 11.7 2.3418052e-38
4.0272427 -2.9633286 9.6000004 2.3418052e-38
-4.4127808 -2.3510351 24.299999 2.3418052e-38
-4.9996595 -0.058343615 8.3000002 2.3418052e-38
-4.8812017 1.083452 29.9 2.3418052e-38
-4.7577519 -1.5374645 12.5 2.3418052e-38
-2.0533335 4.5589275 9 2.3418052e-38
0.34558976 -4.9880424 23.9 2.3418052e-38
2.9324045 -4.0498152 28.6 2.3418052e-38
4.8846774 1.0676725 18.200001 2.3418052e-38
-4.9884515 0.33963302 16.4 2.3418052e-38
-4.7528052 1.5526881 20.700001 2.3418052e-38
-0.91593027 4.9153914 12.2 2.3418052e-38
4.9685493 -0.55992711 22.799999 2.3418052e-38
-4.5054932 2.168071 24.299999 2.3418052e-38
-3.4104331 3.656357 6.8000002 2.3418052e-38
-0.43390772 4.9811368 10.5 2.3418052e-38
3.7602408 3.2955408 3 2.3418052e-38
4.2961621 -2.5579271 17.799999 2.3418052e-38
3.8463681 3.1945975 12 2.3418052e-38
-4.1045027 2.855356 24.4 2.3418052e-38
4.8091722 1.3681607 22.200001 2.3418052e-38
4.0790682 -2.8915744 28.200001 2.3418052e-38
-1.1482353 -4.8663697 15.8 2.3418052e-38
-4.0367975 -2.950299 23.700001 2.3418052e-38
-3.1431909 3.8884897 22.4 2.3418052e-38
1.8083627 -4.6615257 3.5999999 2.3418052e-38
-3.4861157 -3.5842707 29.9 2.3418052e-38
-4.8091936 -1.3680845 25 2.3418052e-38
4.384016 -2.404247 7.0999999 2.3418052e-38
-4.7440047 -1.5793736 13.1 2.3418052e-38
4.9541297 0.67571998 13 2.3418052e-38
-0.47790623 4.977108 19.4 2.3418052e-38
3.7787519 -3.2742991 6.3000002 2.3418052e-38
-2.5248911 4.3156605 28.1 2.3418052e-38
-2.9681356 4.0237012 19.6 2.3418052e-38
3.5800533 3.4904468 27.299999 2.3418052e-38
3.0865922 3.933567 16.799999 2.3418052e-38
-1.7407174 -4.6872063 29.5 2.3418052e-38
-0.18495262 -4.9965782 26.6 2.3418052e-38
-1.9314941 4.6118684 24 2.3418052e-38
-3.2115321 3.8322399 28.4 2.3418052e-38
2.6761427 -4.2235365 4.1999998 2.3418052e-38
-2.5767863 -4.2848773 15.6 2.3418052e-38
1.0461167 -4.8893394 7.9000001 2.3418052e-38
4.9994459 -0.074423686 28.700001 2.3418052e-38
2.5249555 -4.3156228 14.8 2.3418052e-38
3.4542537 3.6149871 15.9 2.3418052e-38
0.34558976 -4.9880424 23.6 2.3418052e-38
-2.6760759 4.2235789 4.1999998 2.3418052e-38
-2.1879897 -4.4958539 7.1999998 2.3418052e-38
1.2613378 -4.8382878 12.1 2.3418052e-38
-3.1775434 3.8604686 11.9 2.3418052e-38
-3.5177577 -3.5532212 13.9 2.3418052e-38
4.3044438 2.5439663 21.1 2.3418052e-38
4.7099042 -1.6783332 16.700001 2.3418052e-38
-3.6108081 -3.4586217 22.799999 2.3418052e-38
2.2133563 -4.4834199 5 2.3418052e-38
-0.00796274 -4.9999938 5.8000002 2.3418052e-38
0.84470475 4.9281311 12.4 2.3418052e-38
-4.6370783 -1.8701622 26.9 2.3418052e-38
4.7527823 -1.5527588 18.1 2.3418052e-38
4.9936786 -0.25134894 28.4 2.3418052e-38
4.9994459 -0.074423686 7.1999998 2.3418052e-38
3.8179891 3.2284608 5 2.3418052e-38
0.4939875 4.9755378 28.5 2.3418052e-38
-0.71355939 -4.9488215 19.9 2.3418052e-38
0.66972792 4.9549437 24.200001 2.3418052e-38
2.8963828 -4.0756555 11.3 2.3418052e-38
-4.7003727 -1.7048455 29 2.3418052e-38
4.425889 -2.3262649 29 2.3418052e-38
2.6146121 4.2619014 8.1000004 2.3418052e-38
-4.669457 -1.787784 13.6 2.3418052e-38
4.6203432 1.9111332 5.5 2.3418052e-38
3.4103229 -3.6564598 26.9 2.3418052e-38
-4.9164953 0.90998667 27.299999 2.3418052e-38
-4.5969734 1.9666814 15 2.3418052e-38
3.3121502 -3.7456188 16 2.3418052e-38
-4.6794305 1.7615142 17.9 2.3418052e-38
4.9541297 0.67571998 19.299999 2.3418052e-38
-2.3705418 4.4023323 22.1 2.3418052e-38
3.6412799 3.4265261 10.4 2.3418052e-38
0.75733501 4.9423118 6.0999999 2.3418052e-38
-4.0627971 -2.914392 12.6 2.3418052e-38
3.4426076 -3.6260796 24.4 2.3418052e-38
-4.3267927 -2.5057666 20.200001 2.3418052e-38
4.7388759 -1.5946958 28.4 2.3418052e-38
-1.0893527 4.8798885 4.1999998 2.3418052e-38
-4.258697 -2.619828 22.799999 2.3418052e-38
3.9023159 3.1260087 17.200001 2.3418052e-38
-2.3315485 4.4231076 25.799999 2.3418052e-38
4.9973454 -0.16291185 3.5999999 2.3418052e-38
2.108129 4.5338497 25.299999 2.3418052e-38
4.425889 -2.3262649 13.3 2.3418052e-38
4.743957 1.5795165 24.799999 2.3418052e-38
-2.6008911 4.2702885 5.4000001 2.3418052e-38
-3.2115321 3.8322399 24.6 2.3418052e-38
-4.9318333 0.82281268 12.9 2.3418052e-38
-0.71355939 -4.9488215 24.6 2.3418052e-38
-4.258697 -2.619828 19.700001 2.3418052e-38
4.8996015 -0.99694842 19 2.3418052e-38
-3.6714149 -3.3942177 13.3 2.3418052e-38
2.9324045 -4.0498152 19.700001 2.3418052e-38
-4.9912581 0.29553971 29.200001 2.3418052e-38
2.3458297 4.4155502 22.5 2.3418052e-38
-4.8846617 -1.0677451 19.6 2.3418052e-38
-2.6522331 -4.2385917 18.799999 2.3418052e-38
-4.8546076 -1.1969899 12.9 2.3418052e-38
-2.4622407 -4.3517089 6 2.3418052e-38
-0.71355939 -4.9488215 10.4 2.3418052e-38
-0.43390772 4.9811368 12.8 2.3418052e-38
4.4463401 -2.2869327 5 2.3418052e-38
2.8963828 -4.0756555 25.6 2.3418052e-38
3.7013142 3.361588 19.4 2.3418052e-38
-1.8646235 -4.639308 19.9 2.3418052e-38
-4.0533142 2.9275663 23.9 2.3418052e-38
-4.724575 1.6365786 22.799999 2.3418052e-38
-1.6422896 4.7225928 20 2.3418052e-38
-1.8234173 -4.6556578 4.6999998 2.3418052e-38
1.2613378 -4.8382878 25.9 2.3418052e-38
3.2909906 3.7642238 3.5 2.3418052e-38
-3.2115321 3.8322399 13.9 2.3418052e-38
1.3467871 -4.8152013 20.4 2.3418052e-38
1.7407873 4.6871805 26.4 2.3418052e-38
0.21310401 -4.9954567 18.5 2.3418052e-38
0.27344701 4.992517 14.3 2.3418052e-38
4.9703164 0.54401791 17.700001 2.3418052e-38
4.9685493 -0.55992711 23.799999 2.3418052e-38
-4.9082336 0.95354152 14.9 2.3418052e-38
-0.91593027 4.9153914 16.700001 2.3418052e-38
4.4931717 2.1934922 19.200001 2.3418052e-38
3.8463681 3.1945975 14.3 2.3418052e-38
-4.1386604 -2.8056173 12.9 2.3418052e-38
2.4481649 -4.359643 28.200001 2.3418052e-38
-2.7268488 -4.1909781 14.1 2.3418052e-38
2.6761427 -4.2235365 16.1 2.3418052e-38
-0.80105126 -4.9354148 4.1999998 2.3418052e-38
4.0533576 -2.927506 11.7 2.3418052e-38
4.4663749 -2.2475536 16.1 2.3418052e-38
4.902812 0.98103696 22.5 2.3418052e-38
2.6146121 4.2619014 29.6 2.3418052e-38
-4.9957075 0.20713851 7.6999998 2.3418052e-38
1.0186229 4.8951411 9 2.3418052e-38
3.6412799 3.4265261 12.4 2.3418052e-38
4.9599075 0.63191682 10.5 2.3418052e-38
-3.6605296 3.4059539 15.8 2.3418052e-38
-3.4745684 3.5954659 28.6 2.3418052e-38
-1.4894494 -4.7730012 24.6 2.3418052e-38
-1.1755655 4.8598399 29.4 2.3418052e-38
4.7795243 -1.4683821 15.2 2.3418052e-38
0.66972792 4.9549437 22.9 2.3418052e-38
-0.52201545 4.9726753 19 2.3418052e-38
4.6694837 1.7877145 7 2.3418052e-38
3.1213467 3.9060459 18 2.3418052e-38
4.9944682 0.23513596 19.299999 2.3418052e-38
-4.8812017 1.083452 12.7 2.3418052e-38
4.7245507 -1.6366489 28.6 2.3418052e-38
-0.21302965 4.9954596 5.5 2.3418052e-38
4.3044438 2.5439663 29 2.3418052e-38
0.4939875 4.9755378 27.9 2.3418052e-38
-2.1879897 -4.4958539 16.9 2.3418052e-38
-0.080470026 4.9993525 7.4000001 2.3418052e-38
-4.6370783 -1.8701622 4.0999999 2.3418052e-38
-0.60995954 4.9626555 3.3 2.3418052e-38
3.2909906 3.7642238 8.8000002 2.3418052e-38
-2.4622407 -4.3517089 16.6 2.3418052e-38
-2.8601944 4.1011324 18.4 2.3418052e-38
4.6636553 -1.8028643 11.7 2.3418052e-38
-4.2116518 -2.6948078 16 2.3418052e-38
-2.8006098 -4.1420507 13.7 2.3418052e-38
-0.40590769 -4.9834967 25.9 2.3418052e-38
-4.3044057 -2.5440304 18.299999 2.3418052e-38
3.6905334 -3.37342 7.3000002 2.3418052e-38
-2.0533335 4.5589275 17.299999 2.3418052e-38
-4.9027977 -0.98110992 18.9 2.3418052e-38
3.3779359 -3.6864007 5.6999998 2.3418052e-38
0.53808218 4.9709625 21.4 2.3418052e-38
-0.30142552 4.9909058 12.9 2.3418052e-38
-2.0935359 4.5406065 25.9 2.3418052e-38
3.9298782 3.0912871 23.799999 2.3418052e-38
-2.0128305 4.5769548 28.799999 2.3418052e-38
-4.951931 0.69165045 23.299999 2.3418052e-38
3.8179891 3.2284608 18.1 2.3418052e-38
-1.9055456 -4.6226501 25.799999 2.3418052e-38
4.9541297 0.67571998 19.9 2.3418052e-38
3.5177047 3.5532737 13.9 2.3418052e-38
-4.9541192 -0.67579848 16.299999 2.3418052e-38
-0.40590769 -4.9834967 9.3999996 2.3418052e-38
4.9456148 -0.73545438 24.700001 2.3418052e-38
-4.2962394 2.5577974 26.200001 2.3418052e-38
4.0790682 -2.8915744 29 2.3418052e-38
4.9541297 0.67571998 9.1000004 2.3418052e-38
-3.8075857 3.2407238 25.700001 2.3418052e-38
1.9315628 -4.6118398 27.4 2.3418052e-38
0.096548997 4.9990678 24.700001 2.3418052e-38
-0.052296918 -4.9997263 23.1 2.3418052e-38
-0.27337268 -4.9925213 13.7 2.3418052e-38
4.5857882 1.9926227 5.4000001 2.3418052e-38
4.5431352 -2.088043 9.8000002 2.3418052e-38
-0.91593027 4.9153914 18.1 2.3418052e-38
-1.9314941 4.6118684 23.1 2.3418052e-38
4.40516 -2.365283 3.9000001 2.3418052e-38
4.5857882 1.9926227 28 2.3418052e-38
-4.5124111 -2.153636 27 2.3418052e-38
3.9741549 -3.0341542 16.200001 2.3418052e-38
-4.7153034 -1.6631041 27.9 2.3418052e-38
2.3706074 -4.402297 8.5 2.3418052e-38
-4.7923346 1.4260195 20.4 2.3418052e-38
3.8361211 -3.2068949 18.299999 2.3418052e-38
4.9944682 0.23513596 25.9 2.3418052e-38
-1.2768925 -4.8342056 24.4 2.3418052e-38
4.1544461 -2.7821891 11.1 2.3418052e-38
-4.8326578 -1.2827382 25 2.3418052e-38
-1.8495525 4.6453371 16 2.3418052e-38
-4.724575 1.6365786 24.9 2.3418052e-38
-4.934442 -0.80701965 4.4000001 2.3418052e-38
0.43383357 -4.9811435 9.1000004 2.3418052e-38
-4.8846617 -1.0677451 7.5 2.3418052e-38
1.4895204 4.7729793 11.4 2.3418052e-38
4.6142011 -1.925915 26.799999 2.3418052e-38
4.9653153 0.58791649 21.799999 2.3418052e-38
-4.0883913 -2.8783777 8.1999998 2.3418052e-38
3.3897202 3.6755676 8.1999998 2.3418052e-38
-3.8075857 3.2407238 23 2.3418052e-38
-4.4127808 -2.3510351 7.4000001 2.3418052e-38
1.2185353 -4.8492446 19.299999 2.3418052e-38
-0.34566402 4.9880371 15.3 2.3418052e-38
3.3779359 -3.6864007 17.4 2.3418052e-38
1.4318144 -4.790606 21.299999 2.3418052e-38
-4.9541192 -0.67579848 7.6999998 2.3418052e-38
-1.2614098 4.8382688 27.5 2.3418052e-38
0.052222494 4.9997272 21.9 2.3418052e-38
-2.0679159 -4.5523314 3.2 2.3418052e-38
-1.5737073 -4.7458873 3.5 2.3418052e-38
1.3467871 -4.8152013 3.7 2.3418052e-38
-3.4861157 -3.5842707 25.299999 2.3418052e-38
-2.9810631 -4.014133 7.3000002 2.3418052e-38
4.957859 -0.64779228 22.5 2.3418052e-38
4.9194102 0.89409399 11 2.3418052e-38
3.8463681 3.1945975 21.700001 2.3418052e-38
-4.4051251 2.3653486 26.299999 2.3418052e-38
-1.8234173 -4.6556578 19 2.3418052e-38
4.9989471 0.10259486 3 2.3418052e-38
3.0036345 -3.9972715 7.0999999 2.3418052e-38
-1.4741615 4.7777452 3.3 2.3418052e-38
3.5800533 3.4904468 28.9 2.3418052e-38
-1.5317092 -4.7596078 20.4 2.3418052e-38
1.1325035 -4.8700552 16.799999 2.3418052e-38
4.9271059 0.85066432 20.299999 2.3418052e-38
4.9318209 -0.82288605 20.6 2.3418052e-38
-3.5687549 3.5019977 23.9 2.3418052e-38
4.5312967 2.1136107 16.299999 2.3418052e-38
4.992187 0.27940863 17.700001 2.3418052e-38
4.384016 -2.404247 8.1000004 2.3418052e-38
3.8463681 3.1945975 6 2.3418052e-38
0.93180978 4.912406 15.5 2.3418052e-38
2.5388243 4.3074784 4.1999998 2.3418052e-38
4.9994459 -0.074423686 3.2 2.3418052e-38
-4.6203713 -1.9110645 7.9000001 2.3418052e-38
-3.4745684 3.5954659 17 2.3418052e-38
-4.01057 -2.9858546 17.200001 2.3418052e-38
-4.729815 -1.6213727 23.4 2.3418052e-38
-3.720248 3.3406219 18.299999 2.3418052e-38
0.60988569 -4.9626646 29.799999 2.3418052e-38
1.0892801 -4.8799047 26.299999 2.3418052e-38
4.902812 0.98103696 15 2.3418052e-38
3.4426076 -3.6260796 7.3000002 2.3418052e-38
3.3121502 -3.7456188 25.9 2.3418052e-38
4.2268124 -2.6709659 14.7 2.3418052e-38
1.0892801 -4.8799047 28.200001 2.3418052e-38
1.9722395 -4.5945916 13.2 2.3418052e-38
-2.3705418 4.4023323 15.4 2.3418052e-38
-1.8495525 4.6453371 9.8000002 2.3418052e-38
0.75733501 4.9423118 14 2.3418052e-38
-1.9870069 -4.5882244 25.9 2.3418052e-38
-4.0627971 -2.914392 16.200001 2.3418052e-38
-3.2788668 3.7747891 4.0999999 2.3418052e-38
-1.0027986 4.8984075 22.299999 2.3418052e-38
-4.0367975 -2.950299 17.200001 2.3418052e-38
2.0128984 -4.5769248 5.4000001 2.3418052e-38
3.9298782 3.0912871 16.5 2.3418052e-38
2.2276981 4.4763112 14.7 2.3418052e-38
-4.8714042 1.126687 17.6 2.3418052e-38
4.7099042 -1.6783332 11.8 2.3418052e-38
4.5054607 -2.168138 10.3 2.3418052e-38
4.4931717 2.1934922 23.299999 2.3418052e-38
-4.8091936 -1.3680845 15.9 2.3418052e-38
-4.9973478 0.16283746 20.6 2.3418052e-38
-4.6475148 1.8440732 12 2.3418052e-38
3.1774859 -3.8605161 10.8 2.3418052e-38
-4.5244751 2.1281738 29.799999 2.3418052e-38
3.3121502 -3.7456188 27.6 2.3418052e-38
-0.53793234 -4.9709787 21.5 2.3418052e-38
-4.3917627 -2.3900673 7.0999999 2.3418052e-38
3.5688071 -3.5019445 5.9000001 2.3418052e-38
-1.1755655 4.8598399 21 2.3418052e-38
2.3314826 -4.4231424 12.4 2.3418052e-38
2.5006626 4.3297443 3.9000001 2.3418052e-38
-2.3457639 -4.415585 17.799999 2.3418052e-38
-0.052296918 -4.9997263 15.3 2.3418052e-38
-4.9776683 0.47203654 21.4 2.3418052e-38
1.0461167 -4.8893394 8.8999996 2.3418052e-38
4.9685493 -0.55992711 6.6999998 2.3418052e-38
-2.6008911 4.2702885 22.299999 2.3418052e-38
1.5316384 4.7596307 13.1 2.3418052e-38
3.5800533 3.4904468 12.2 2.3418052e-38
-1.9055456 -4.6226501 7.5 2.3418052e-38
3.1774859 -3.8605161 7.9000001 2.3418052e-38
0.052222494 4.9997272 15.4 2.3418052e-38
0.30149981 -4.9909015 23.1 2.3418052e-38
3.3121502 -3.7456188 5.6999998 2.3418052e-38
-3.8075857 3.2407238 28.1 2.3418052e-38
4.4334178 2.3118842 23.299999 2.3418052e-38
3.0739231 -3.9434752 18.200001 2.3418052e-38
-2.3705418 4.4023323 8.6999998 2.3418052e-38
-2.8006098 -4.1420507 19.6 2.3418052e-38
-1.9055456 -4.6226501 29.200001 2.3418052e-38
-3.5062037 3.5646226 5.0999999 2.3418052e-38
-4.0533142 2.9275663 23.200001 2.3418052e-38
-3.9839392 -3.0212958 8.1000004 2.3418052e-38
-4.6534772 -1.8289756 11.5 2.3418052e-38
4.7298393 1.6213024 19.9 2.3418052e-38
-4.1789093 2.7453079 16.200001 2.3418052e-38
4.4334178 2.3118842 18.299999 2.3418052e-38
3.3241246 3.7349961 15.4 2.3418052e-38
-4.3625636 2.4429572 10.9 2.3418052e-38
-4.250288 2.6334484 13.2 2.3418052e-38
0.43383357 -4.9811435 16.299999 2.3418052e-38
3.3571091 3.7053771 16 2.3418052e-38
3.9839842 3.0212364 11.1 2.3418052e-38
3.5800533 3.4904468 28.6 2.3418052e-38
-3.8921936 3.138603 13 2.3418052e-38
-3.8921936 3.138603 18.299999 2.3418052e-38
-3.5376706 3.533396 7.5999999 2.3418052e-38
-1.1482353 -4.8663697 22 2.3418052e-38
3.919822 -3.1040289 22.5 2.3418052e-38
-2.7268488 -4.1909781 13.9 2.3418052e-38
-4.9113035 -0.93760222 9 2.3418052e-38
-4.9996595 -0.058343615 6 2.3418052e-38
0.97518152 4.9039803 14.3 2.3418052e-38
3.5688071 -3.5019445 21 2.3418052e-38
-3.2788668 3.7747891 5.5 2.3418052e-38
-4.01057 -2.9858546 12.5 2.3418052e-38
-4.3044057 -2.5440304 7 2.3418052e-38
-3.5177577 -3.5532212 5.3000002 2.3418052e-38
3.5996125 -3.4702723 12.2 2.3418052e-38
-2.8734934 -4.0918255 25 2.3418052e-38
4.6032753 1.9518859 29.700001 2.3418052e-38
0.6538617 -4.9570622 12.6 2.3418052e-38
-0.52201545 4.9726753 27.1 2.3418052e-38
4.8047686 -1.3835453 24.9 2.3418052e-38
-2.6760759 4.2235789 22.799999 2.3418052e-38
2.5006626 4.3297443 9.8000002 2.3418052e-38
4.0368419 2.9502389 17.700001 2.3418052e-38
4.9703164 0.54401791 9 2.3418052e-38
-3.5177577 -3.5532212 19.9 2.3418052e-38
-1.3622673 -4.8108449 3.0999999 2.3418052e-38
4.9164815 -0.91005987 17.700001 2.3418052e-38
1.0461167 -4.8893394 5.6999998 2.3418052e-38
-3.7496219 3.3076177 5.1999998 2.3418052e-38
4.0533576 -2.927506 4.0999999 2.3418052e-38
-4.1876769 -2.7319155 16.799999 2.3418052e-38
1.9315628 -4.6118398 28.4 2.3418052e-38
-4.1296573 2.8188524 27.6 2.3418052e-38
4.3488021 2.4673707 16.6 2.3418052e-38
4.992187 0.27940863 25.4 2.3418052e-38
4.9749441 0.49992871 17.799999 2.3418052e-38
4.8612404 -1.1697612 29.700001 2.3418052e-38
0.93180978 4.912406 17.200001 2.3418052e-38
4.4736476 2.233042 14.5 2.3418052e-38
4.2961621 -2.5579271 12.5 2.3418052e-38
-3.5376706 3.533396 28.299999 2.3418052e-38
0.69763887 -4.9510908 12.7 2.3418052e-38
4.6142011 -1.925915 22.1 2.3418052e-38
-3.8464155 -3.1945403 3.4000001 2.3418052e-38
3.0036345 -3.9972715 3.4000001 2.3418052e-38
-4.8905849 1.0402772 5.9000001 2.3418052e-38
-2.4094806 4.3811417 5.6999998 2.3418052e-38
3.1556811 3.87836 16.1 2.3418052e-38
-4.3917627 -2.3900673 17.200001 2.3418052e-38
-4.7577519 -1.5374645 25 2.3418052e-38
-4.2962394 2.5577974 6.1999998 2.3418052e-38
4.6794567 -1.7614446 29.9 2.3418052e-38
4.7099042 -1.6783332 5.4000001 2.3418052e-38
-1.7407174 -4.6872063 5.0999999 2.3418052e-38
-2.5630555 4.2931046 26.4 2.3418052e-38
2.8371627 4.1170993 16.299999 2.3418052e-38
3.6412799 3.4265261 27.200001 2.3418052e-38
2.9095988 4.0662313 13.7 2.3418052e-38
2.5388243 4.3074784 8 2.3418052e-38
2.4481649 -4.359643 8.6999998 2.3418052e-38
4.5793858 -2.0072935 19 2.3418052e-38
4.391798 2.390002 27 2.3418052e-38
4.9999094 -0.030092316 26.5 2.3418052e-38
0.80097777 4.9354267 26.9 2.3418052e-38
3.5376179 -3.5334487 16.1 2.3418052e-38
2.2133563 -4.4834199 15.1 2.3418052e-38
-4.0533142 2.9275663 20 2.3418052e-38
2.8371627 4.1170993 13.8 2.3418052e-38
-3.630188 3.4382751 26.4 2.3418052e-38
1.1325035 -4.8700552 23.200001 2.3418052e-38
-4.9963536 -0.19091916 10.4 2.3418052e-38
2.7872734 -4.1510367 27.9 2.3418052e-38
-4.9957075 0.20713851 21.200001 2.3418052e-38
4.1788688 -2.7453701 26.9 2.3418052e-38
-4.8750358 -1.1108664 17 2.3418052e-38
-0.27337268 -4.9925213 24.4 2.3418052e-38
-2.0128305 4.5769548 14.9 2.3418052e-38
-1.6003536 4.736968 6.5 2.3418052e-38
3.2453265 -3.8036635 12.6 2.3418052e-38
-1.447215 -4.7859764 8.3000002 2.3418052e-38
-4.9599166 -0.63184297 16.9 2.3418052e-38
3.8179891 3.2284608 25.200001 2.3418052e-38
-4.3267927 -2.5057666 19.299999 2.3418052e-38
-3.7496219 3.3076177 8.8999996 2.3418052e-38
-2.7268488 -4.1909781 3.0999999 2.3418052e-38
1.3467871 -4.8152013 16.4 2.3418052e-38
-4.986464 -0.36766195 14.8 2.3418052e-38
3.9298782 3.0912871 7.6999998 2.3418052e-38
0.52194142 -4.972683 23.299999 2.3418052e-38
2.5388243 4.3074784 24.9 2.3418052e-38
-1.8084321 4.661499 15.5 2.3418052e-38
4.4334178 2.3118842 26.799999 2.3418052e-38
4.425889 -2.3262649 16 2.3418052e-38
0.66972792 4.9549437 22.299999 2.3418052e-38
4.5857882 1.9926227 17.1 2.3418052e-38
4.391798 2.390002 7.6999998 2.3418052e-38
0.38980114 -4.9847822 4.5 2.3418052e-38
3.5688071 -3.5019445 16.1 2.3418052e-38
4.7245507 -1.6366489 22.299999 2.3418052e-38
0.69763887 -4.9510908 20 2.3418052e-38
1.9722395 -4.5945916 7.5 2.3418052e-38
2.5006626 4.3297443 14.2 2.3418052e-38
-4.663682 1.8027948 25.9 2.3418052e-38
2.6009548 -4.2702498 8.8999996 2.3418052e-38
1.3041854 -4.8269143 6.9000001 2.3418052e-38
1.9722395 -4.5945916 15.1 2.3418052e-38
-0.43390772 4.9811368 28.299999 2.3418052e-38
4.3704352 2.4288466 3.3 2.3418052e-38
-4.8168268 1.3409625 20.4 2.3418052e-38
-4.5969734 1.9666814 18.1 2.3418052e-38
-4.7795463 1.468311 6.5999999 2.3418052e-38
-4.861258 1.1696888 16.700001 2.3418052e-38
3.9839842 3.0212364 9.1999998 2.3418052e-38
4.3186722 -2.5197358 10.2 2.3418052e-38
3.1556811 3.87836 3.0999999 2.3418052e-38
4.8397717 -1.2556312 7.4000001 2.3418052e-38
-4.669457 -1.787784 11.8 2.3418052e-38
2.6385868 -4.2470999 8.3000002 2.3418052e-38
1.8905973 -4.6287842 18.700001 2.3418052e-38
-4.6203713 -1.9110645 7.3000002 2.3418052e-38
4.8939214 1.0244677 26.200001 2.3418052e-38
3.5177047 3.5532737 23.299999 2.3418052e-38
-2.5388885 -4.3074408 9.6000004 2.3418052e-38
-0.1407935 -4.9980173 14.1 2.3418052e-38
3.4426076 -3.6260796 18 2.3418052e-38
-4.4735804 -2.2331767 9.3000002 2.3418052e-38
-2.6522331 -4.2385917 4.8000002 2.3418052e-38
1.2340535 4.8453188 23 2.3418052e-38
2.8734324 4.0918684 5.9000001 2.3418052e-38
-4.2353811 -2.6573575 16 2.3418052e-38
-3.3570538 -3.7054269 12.4 2.3418052e-38
0.12471769 -4.9984441 18 2.3418052e-38
-1.9055456 -4.6226501 10.2 2.3418052e-38
4.8846774 1.0676725 28 2.3418052e-38
-0.40590769 -4.9834967 8.3000002 2.3418052e-38
4.9989471 0.10259486 4 2.3418052e-38
3.6715171 3.3941071 22.299999 2.3418052e-38
3.5177047 3.5532737 15.7 2.3418052e-38
-4.0533142 2.9275663 23.1 2.3418052e-38
-3.0866506 -3.933521 9 2.3418052e-38
-0.257312 4.9933748 11.3 2.3418052e-38
-4.250288 2.6334484 13.8 2.3418052e-38
-4.0627971 -2.914392 12.9 2.3418052e-38
3.7892129 3.2621872 7.0999999 2.3418052e-38
2.6896462 4.2149501 24.299999 2.3418052e-38
-2.7637756 -4.1667185 19.9 2.3418052e-38
4.65345 1.8290448 28.799999 2.3418052e-38
3.4542537 3.6149871 18.6 2.3418052e-38
-4.9243441 0.86650693 13.2 2.3418052e-38
1.7407873 4.6871805 3 2.3418052e-38
-4.3625636 2.4429572 23.299999 2.3418052e-38
-1.5317092 -4.7596078 18.700001 2.3418052e-38
-4.3044057 -2.5440304 19.4 2.3418052e-38
3.8922882 -3.1384857 29.9 2.3418052e-38
4.1136651 2.84214 23.9 2.3418052e-38
3.1774859 -3.8605161 4.1999998 2.3418052e-38
4.7298393 1.6213024 28.6 2.3418052e-38
3.7201984 -3.3406773 14.9 2.3418052e-38
2.5629916 -4.2931428 18.6 2.3418052e-38
1.1051166 4.8763428 11.1 2.3418052e-38
-3.1775434 3.8604686 3.3 2.3418052e-38
4.2353415 2.6574204 12.2 2.3418052e-38
-0.93173671 -4.9124198 17.299999 2.3418052e-38
1.0461167 -4.8893394 21.9 2.3418052e-38
2.6761427 -4.2235365 15.4 2.3418052e-38
-4.9703245 -0.54394388 22.4 2.3418052e-38
-4.0627971 -2.914392 15.9 2.3418052e-38
0.21310401 -4.9954567 11.8 2.3418052e-38
4.384016 -2.404247 3.3 2.3418052e-38
1.1051166 4.8763428 9.8999996 2.3418052e-38
-2.6760759 4.2235789 3.5 2.3418052e-38
-4.7153034 -1.6631041 18.700001 2.3418052e-38
-2.5388885 -4.3074408 16.9 2.3418052e-38
-1.5737073 -4.7458873 28.700001 2.3418052e-38
-4.0533142 2.9275663 3.7 2.3418052e-38
-4.2817578 -2.5819666 28.9 2.3418052e-38
-0.44992813 -4.9797153 10.4 2.3418052e-38
-4.4735804 -2.2331767 21.1 2.3418052e-38
-0.75725675 -4.9423237 19.200001 2.3418052e-38
4.6948385 -1.7200261 22.1 2.3418052e-38
-0.34566402 4.9880371 20.5 2.3418052e-38
-4.8905849 1.0402772 17.9 2.3418052e-38
0.40583351 4.9835029 22.799999 2.3418052e-38
-1.1482353 -4.8663697 14.7 2.3418052e-38
3.5062568 -3.5645707 24.5 2.3418052e-38
-2.3705418 4.4023323 18.700001 2.3418052e-38
-3.0165362 -3.9875443 5.0999999 2.3418052e-38
-0.22924598 -4.9947419 8.6000004 2.3418052e-38
4.1136651 2.84214 29.4 2.3418052e-38
-4.2962394 2.5577974 23.6 2.3418052e-38
-4.8326578 -1.2827382 21.700001 2.3418052e-38
-2.3457639 -4.415585 16.4 2.3418052e-38
2.5249555 -4.3156228 6.5999999 2.3418052e-38
3.7496743 -3.3075583 29.4 2.3418052e-38
0.12471769 -4.9984441 23.299999 2.3418052e-38
-4.9973478 0.16283746 28.4 2.3418052e-38
-4.318635 2.5198002 21.200001 2.3418052e-38
4.8091722 1.3681607 11.7 2.3418052e-38
-4.6475148 1.8440732 6.5 2.3418052e-38
1.9056145 4.622622 4.5 2.3418052e-38
3.4221754 3.6453691 9.5 2.3418052e-38
-3.2453868 3.803612 7.0999999 2.3418052e-38
-3.6108081 -3.4586217 16.9 2.3418052e-38
2.6009548 -4.2702498 10.1 2.3418052e-38
4.0533576 -2.927506 15.2 2.3418052e-38
4.8939214 1.0244677 4 2.3418052e-38
-4.9318333 0.82281268 14.3 2.3418052e-38
-1.8084321 4.661499 9.1000004 2.3418052e-38
-4.9996595 -0.058343615 7.8000002 2.3418052e-38
3.4221754 3.6453691 19.6 2.3418052e-38
-2.8734934 -4.0918255 22.4 2.3418052e-38
4.9194102 0.89409399 9.8999996 2.3418052e-38
2.9680758 -4.0237451 7 2.3418052e-38
-4.5244751 2.1281738 26.799999 2.3418052e-38
0.43383357 -4.9811435 4.0999999 2.3418052e-38
-4.5124111 -2.153636 23.9 2.3418052e-38
3.1086495 -3.9161587 6.3000002 2.3418052e-38
4.9318209 -0.82288605 29 2.3418052e-38
0.38980114 -4.9847822 20.200001 2.3418052e-38
-1.2614098 4.8382688 3.0999999 2.3418052e-38
2.1880565 4.495821 25.700001 2.3418052e-38
-2.1735854 4.5028353 7.0999999 2.3418052e-38
-2.3066545 -4.436141 8.3000002 2.3418052e-38
-4.9703245 -0.54394388 22.5 2.3418052e-38
-4.258697 -2.619828 14 2.3418052e-38
-4.9895182 -0.32358509 7.1999998 2.3418052e-38
-2.1481769 -4.5150123 13.4 2.3418052e-38
-3.0035748 3.9973164 15.2 2.3418052e-38
2.2133563 -4.4834199 4.5 2.3418052e-38
-3.0388978 3.9705288 24.6 2.3418052e-38
-3.7309237 -3.3286948 6.0999999 2.3418052e-38
-4.9978433 -0.14683807 12.5 2.3418052e-38
-2.4481001 4.3596797 27.4 2.3418052e-38
-1.3468589 4.8151813 24.4 2.3418052e-38
4.8811855 -1.0835246 3 2.3418052e-38
-4.951931 0.69165045 9.3999996 2.3418052e-38
-3.9570863 -3.0563815 5.6999998 2.3418052e-38
-3.9839392 -3.0212958 26 2.3418052e-38
1.6422193 -4.7226176 19.200001 2.3418052e-38
-4.0627971 -2.914392 17.6 2.3418052e-38
-3.4425538 3.6261308 29 2.3418052e-38
-3.1775434 3.8604686 3.5 2.3418052e-38
2.3065884 4.4361753 29.799999 2.3418052e-38
-2.7268488 -4.1909781 14.1 2.3418052e-38
2.1880565 4.495821 17 2.3418052e-38
-3.1431909 3.8884897 24 2.3418052e-38
1.0892801 -4.8799047 10.1 2.3418052e-38
-1.3468589 4.8151813 20.9 2.3418052e-38
-0.18495262 -4.9965782 29.6 2.3418052e-38
1.3467871 -4.8152013 23.9 2.3418052e-38
-3.5996642 3.4702187 13.5 2.3418052e-38
-2.0935359 4.5406065 17.299999 2.3418052e-38
-2.6760759 4.2235789 6.4000001 2.3418052e-38
-4.9633985 0.60388333 15.1 2.3418052e-38
-4.2962394 2.5577974 5.0999999 2.3418052e-38
-3.6605296 3.4059539 13.9 2.3418052e-38
3.630239 -3.438221 26.5 2.3418052e-38
4.6142011 -1.925915 27.9 2.3418052e-38
-4.561439 2.0477483 29.1 2.3418052e-38
-3.2575436 -3.7932057 3.0999999 2.3418052e-38
-4.9193969 -0.89416724 16.1 2.3418052e-38
3.5800533 3.4904468 3.0999999 2.3418052e-38
1.9315628 -4.6118398 12.8 2.3418052e-38
0.91585708 -4.9154048 29.4 2.3418052e-38
-2.3457639 -4.415585 14.3 2.3418052e-38
1.615653 4.7317719 22.299999 2.3418052e-38
0.18502699 4.9965754 8.6999998 2.3418052e-38
4.6850982 1.7463832 24.299999 2.3418052e-38
0.16880494 -4.9971495 18.799999 2.3418052e-38
-1.0893527 4.8798885 22 2.3418052e-38
-4.9776683 0.47203654 29.799999 2.3418052e-38
2.1880565 4.495821 21.799999 2.3418052e-38
3.0388389 -3.9705741 6.3000002 2.3418052e-38
1.1912642 4.8560157 9.5 2.3418052e-38
-3.6108081 -3.4586217 20.5 2.3418052e-38
-3.8744936 -3.1604269 14.2 2.3418052e-38
-3.7496219 3.3076177 29.799999 2.3418052e-38
-2.5630555 4.2931046 7.1999998 2.3418052e-38
4.6310105 -1.8851374 25.299999 2.3418052e-38
4.99998 0.014087796 29.700001 2.3418052e-38
2.3706074 -4.402297 24.700001 2.3418052e-38
2.7267845 4.19102 21.6 2.3418052e-38
-2.750422 4.1755452 7.6999998 2.3418052e-38
-1.4741615 4.7777452 20 2.3418052e-38
-0.62584394 -4.9606771 29.700001 2.3418052e-38
-3.3570538 -3.7054269 20.299999 2.3418052e-38
4.4536734 2.2726183 25.1 2.3418052e-38
1.6575423 4.7172613 29.799999 2.3418052e-38
-4.5124111 -2.153636 15.4 2.3418052e-38
-2.1481769 -4.5150123 10.6 2.3418052e-38
-0.3176266 -4.9899011 28.4 2.3418052e-38
-2.4235609 -4.3733687 22.799999 2.3418052e-38
4.8091722 1.3681607 16.299999 2.3418052e-38
2.1880565 4.495821 11.5 2.3418052e-38
-2.0679159 -4.5523314 8.1000004 2.3418052e-38
4.6794567 -1.7614446 18.5 2.3418052e-38
-2.0533335 4.5589275 20 2.3418052e-38
-4.8506961 1.2127438 20.799999 2.3418052e-38
2.8602555 -4.10109 14.9 2.3418052e-38
-4.9912581 0.29553971 7.9000001 2.3418052e-38
-2.4866576 4.3378029 18.5 2.3418052e-38
-0.22924598 -4.9947419 7.5 2.3418052e-38
3.4861691 3.584219 8.6000004 2.3418052e-38
-4.8996162 0.99687552 22.6 2.3418052e-38
2.3314826 -4.4231424 21.6 2.3418052e-38
-0.21302965 4.9954596 16.9 2.3418052e-38
0.4939875 4.9755378 20.9 2.3418052e-38
-3.5490179 -3.5219982 11.5 2.3418052e-38
1.6991613 4.7024302 3.3 2.3418052e-38
4.98525 -0.38377404 27.6 2.3418052e-38
4.65345 1.8290448 21.299999 2.3418052e-38
3.5062568 -3.5645707 10 2.3418052e-38
-0.40590769 -4.9834967 28.6 2.3418052e-38
-4.7842226 -1.4530022 6.3000002 2.3418052e-38
-4.9733028 0.51600289 20.799999 2.3418052e-38
-1.0185499 -4.8951564 11.6 2.3418052e-38
-2.9095383 -4.0662742 18.200001 2.3418052e-38
1.8083627 -4.6615257 4 2.3418052e-38
-2.4094806 4.3811417 22.6 2.3418052e-38
4.8047686 -1.3835453 26.5 2.3418052e-38
1.2185353 -4.8492446 29.9 2.3418052e-38
4.1136651 2.84214 14.6 2.3418052e-38
-4.9541192 -0.67579848 5.3000002 2.3418052e-38
-2.3315485 4.4231076 10.3 2.3418052e-38
4.2587361 2.6197646 4.1999998 2.3418052e-38
-4.5244751 2.1281738 23.4 2.3418052e-38
-2.0679159 -4.5523314 21 2.3418052e-38
3.7892129 3.2621872 16.9 2.3418052e-38
-4.7923346 1.4260195 21.5 2.3418052e-38
4.9989471 0.10259486 29.6 2.3418052e-38
-4.9936819 0.25127462 28.200001 2.3418052e-38
-2.9095383 -4.0662742 15.1 2.3418052e-38
-1.6992314 -4.702405 16.1 2.3418052e-38
-4.5969734 1.9666814 23.700001 2.3418052e-38
4.9389229 -0.77912724 26.1 2.3418052e-38
-0.36170709 -4.9868999 28.1 2.3418052e-38
2.6896462 4.2149501 8.8000002 2.3418052e-38
1.7407873 4.6871805 22 2.3418052e-38
4.9989471 0.10259486 19.299999 2.3418052e-38
4.8612404 -1.1697612 22.799999 2.3418052e-38
1.0186229 4.8951411 20.799999 2.3418052e-38
-3.8744936 -3.1604269 24.200001 2.3418052e-38
-0.080470026 4.9993525 19.6 2.3418052e-38
3.5376179 -3.5334487 6.5999999 2.3418052e-38
3.6604791 -3.4060085 20 2.3418052e-38
1.2185353 -4.8492446 28.700001 2.3418052e-38
4.9082479 -0.95346844 3.2 2.3418052e-38
4.9112897 0.9376753 15 2.3418052e-38
-2.8964434 4.0756125 13.3 2.3418052e-38
-2.6386502 4.2470608 28 2.3418052e-38
-4.8714042 1.126687 9.3000002 2.3418052e-38
-4.9957075 0.20713851 5.4000001 2.3418052e-38
-3.1775434 3.8604686 24.4 2.3418052e-38
-3.8744936 -3.1604269 5.0999999 2.3418052e-38
0.6538617 -4.9570622 25.1 2.3418052e-38
4.9541297 0.67571998 6.8000002 2.3418052e-38
-0.87231344 4.9233189 18.1 2.3418052e-38
1.9315628 -4.6118398 28.299999 2.3418052e-38
-4.9027977 -0.98110992 27.700001 2.3418052e-38
-1.0893527 4.8798885 11.4 2.3418052e-38
-2.3066545 -4.436141 16.9 2.3418052e-38
-0.30142552 4.9909058 20.700001 2.3418052e-38
-3.3451741 3.7161553 9.1000004 2.3418052e-38
-3.3570538 -3.7054269 21.1 2.3418052e-38
-1.1324309 4.8700719 18.700001 2.3418052e-38
1.9056145 4.622622 13.6 2.3418052e-38
3.7013142 3.361588 23.9 2.3418052e-38
4.9243569 -0.86643362 27.1 2.3418052e-38
-2.4622407 -4.3517089 7.0999999 2.3418052e-38
-4.1544046 2.7822511 9.6000004 2.3418052e-38
-3.4745684 3.5954659 18.299999 2.3418052e-38
1.3196316 4.8227143 6.6999998 2.3418052e-38
2.9095988 4.0662313 20 2.3418052e-38
3.4745147 -3.5955176 27.4 2.3418052e-38
4.7527823 -1.5527588 23.299999 2.3418052e-38
2.2133563 -4.4834199 5.6999998 2.3418052e-38
2.9324045 -4.0498152 24.9 2.3418052e-38
0.52194142 -4.972683 22.299999 2.3418052e-38
-3.9023623 -3.1259508 9.1999998 2.3418052e-38
-1.5585058 4.7509007 22.9 2.3418052e-38
4.8714209 -1.1266146 23.5 2.3418052e-38
-1.0893527 4.8798885 14 2.3418052e-38
-4.7528052 1.5526881 24.299999 2.3418052e-38
0.31755233 4.9899058 3.9000001 2.3418052e-38
-0.65378791 4.9570718 22.5 2.3418052e-38
-0.65378791 4.9570718 25.299999 2.3418052e-38
4.2116938 2.694742 5.1999998 2.3418052e-38
4.9994459 -0.074423686 15.7 2.3418052e-38
-2.750422 4.1755452 8.6999998 2.3418052e-38
-0.49406156 -4.9755306 14 2.3418052e-38
-4.7440047 -1.5793736 22.6 2.3418052e-38
-1.3622673 -4.8108449 20.5 2.3418052e-38
-0.09647458 -4.9990692 7.8000002 2.3418052e-38
-4.9541192 -0.67579848 26.9 2.3418052e-38
-4.1544046 2.7822511 22.700001 2.3418052e-38
-3.7892632 -3.2621286 12.1 2.3418052e-38
4.700398 1.7047756 16 2.3418052e-38
2.7638376 4.1666775 11.6 2.3418052e-38
0.52194142 -4.972683 29.200001 2.3418052e-38
-3.8464155 -3.1945403 21.1 2.3418052e-38
3.8922882 -3.1384857 15.3 2.3418052e-38
0.87246186 -4.9232926 20.799999 2.3418052e-38
-2.6760759 4.2235789 26.799999 2.3418052e-38
4.9994459 -0.074423686 29.799999 2.3418052e-38
-4.8812017 1.083452 6.8000002 2.3418052e-38
4.8091722 1.3681607 10.9 2.3418052e-38
-3.2453868 3.803612 20.299999 2.3418052e-38
4.8326387 1.2828101 15.4 2.3418052e-38
-4.7440047 -1.5793736 5.6999998 2.3418052e-38
1.4047961 4.7985983 12.3 2.3418052e-38
-0.47790623 4.977108 29.6 2.3418052e-38
-3.3451741 3.7161553 4.1999998 2.3418052e-38
3.8745408 3.1603692 11.2 2.3418052e-38
-3.2453868 3.803612 5.5 2.3418052e-38
3.4221754 3.6453691 15.4 2.3418052e-38
1.1754931 -4.8598576 23.4 2.3418052e-38
4.9194102 0.89409399 28.1 2.3418052e-38
1.0618386 4.8859491 17.299999 2.3418052e-38
4.9912624 -0.29546541 13.8 2.3418052e-38
-1.6574721 -4.7172861 21.299999 2.3418052e-38
0.75733501 4.9423118 19.9 2.3418052e-38
4.9685493 -0.55992711 28.4 2.3418052e-38
-1.9870069 -4.5882244 26.1 2.3418052e-38
3.5996125 -3.4702723 8 2.3418052e-38
4.9776754 -0.47196245 20 2.3418052e-38
1.615653 4.7317719 24.200001 2.3418052e-38
4.1136651 2.84214 5.1999998 2.3418052e-38
-4.318635 2.5198002 10.4 2.3418052e-38
0.66972792 4.9549437 5.9000001 2.3418052e-38
3.630239 -3.438221 12.5 2.3418052e-38
4.6310105 -1.8851374 13.6 2.3418052e-38
1.6991613 4.7024302 19 2.3418052e-38
3.4861691 3.584219 7.3000002 2.3418052e-38
2.8602555 -4.10109 3.7 2.3418052e-38
-1.7256312 4.6927814 14.8 2.3418052e-38
4.5793858 -2.0072935 22 2.3418052e-38
-4.8398094 1.2554853 26.299999 2.3418052e-38
-1.8234173 -4.6556578 23.200001 2.3418052e-38
-1.3041135 4.8269334 20.4 2.3418052e-38
2.6761427 -4.2235365 5.8000002 2.3418052e-38
3.630239 -3.438221 12.7 2.3418052e-38
2.3065884 4.4361753 16.799999 2.3418052e-38
4.9816513 -0.42795917 26.9 2.3418052e-38
1.1912642 4.8560157 24.1 2.3418052e-38
4.9389229 -0.77912724 27.4 2.3418052e-38
-2.4094806 4.3811417 20.1 2.3418052e-38
4.7663627 -1.5105587 16.5 2.3418052e-38
-4.9944644 -0.2352103 6.6999998 2.3418052e-38
-4.6794305 1.7615142 22.6 2.3418052e-38
4.9685493 -0.55992711 13.8 2.3418052e-38
-3.4543076 -3.6149356 10.5 2.3418052e-38
4.8750196 1.110939 26.200001 2.3418052e-38
-0.65378791 4.9570718 23.200001 2.3418052e-38
1.6575423 4.7172613 6.0999999 2.3418052e-38
0.5660097 -4.9678602 29.700001 2.3418052e-38
4.796896 1.4105986 16.9 2.3418052e-38
-2.750422 4.1755452 22.799999 2.3418052e-38
2.9680758 -4.0237451 11.8 2.3418052e-38
-3.2115321 3.8322399 28.5 2.3418052e-38
4.743957 1.5795165 18 2.3418052e-38
1.4895204 4.7729793 25.4 2.3418052e-38
4.9999094 -0.030092316 20.700001 2.3418052e-38
-3.8921936 3.138603 20 2.3418052e-38
1.9056145 4.622622 12.1 2.3418052e-38
4.1788688 -2.7453701 8.8000002 2.3418052e-38
4.4736476 2.233042 19 2.3418052e-38
3.1213467 3.9060459 13.4 2.3418052e-38
-1.3622673 -4.8108449 12.5 2.3418052e-38
2.8261983 -3.372329 30 2.3418052e-38
-1.3366588 -2.6857667 30 2.3418052e-38
0.77509195 1.0436629 30 2.3418052e-38
1.7395209 0.98694831 30 2.3418052e-38
2.5514028 2.8160865 30 2.3418052e-38
-3.3607185 2.5190413 30 2.3418052e-38
2.1572373 0.43165627 30 2.3418052e-38
2.3036935 2.6349566 30 2.3418052e-38
-0.55074269 -4.365396 30 2.3418052e-38
0.70934683 0.36990148 30 2.3418052e-38
-0.18548313 -0.074806489 30 2.3418052e-38
3.3688083 0.45948961 30 2.3418052e-38
3.5170591 -1.1490415 30 2.3418052e-38
0.50977916 0.47971362 30 2.3418052e-38
0.098487034 0.17406982 30 2.3418052e-38
1.5510269 4.542501 30 2.3418052e-38
-2.4085252 2.6756318 30 2.3418052e-38
0.67576379 3.9425046 30 2.3418052e-38
0.085923247 -0.05115854 30 2.3418052e-38
0.59906244 0.033529039 30 2.3418052e-38
0.39799556 0.039994299 30 2.3418052e-38
1.9323912 1.0516009 30 2.3418052e-38
-0.86198962 3.0817161 30 2.3418052e-38
2.8577831 2.504611 30 2.3418052e-38
-2.4598932 -2.7638607 30 2.3418052e-38
1.8955504 -0.6378783 30 2.3418052e-38
-4.0140667 1.8020186 30 2.3418052e-38
-1.3982309 0.070356891 30 2.3418052e-38
1.8389968 2.6187956 30 2.3418052e-38
1.3203156 -1.3662966 30 2.3418052e-38
1.3215481 -0.70958489 30 2.3418052e-38
2.9213903 -1.7393904 30 2.3418052e-38
-4.0953312 2.6904018 30 2.3418052e-38
0.31218529 0.2500807 30 2.3418052e-38
0.87734544 -3.4914558 30 2.3418052e-38
-1.9375896 -3.7263582 30 2.3418052e-38
0.54754806 0.58325905 30 2.3418052e-38
2.2997451 -0.034234896 30 2.3418052e-38
-1.7551419 1.1530292 30 2.3418052e-38
0.60816115 -1.8000388 30 2.3418052e-38
0.63549715 -0.77210319 30 2.3418052e-38
-0.079480276 -0.18352897 30 2.3418052e-38
4.1864529 2.1362612 30 2.3418052e-38
1.6642425 -3.5270805 30 2.3418052e-38
0.96256179 3.7793486 30 2.3418052e-38
1.5709167 0.64978534 30 2.3418052e-38
-1.046768 2.2703032 30 2.3418052e-38
1.0839633 0.18714614 30 2.3418052e-38
-1.3354999 -2.4609835 30 2.3418052e-38
-2.4950006 -1.0319748 30 2.3418052e-38
-2.0435126 -1.6074997 30 2.3418052e-38
-1.0671532 0.26680362 30 2.3418052e-38
-2.9736254 1.4309268 30 2.3418052e-38
-0.21045256 2.6917856 30 2.3418052e-38
3.4164457 3.5125346 30 2.3418052e-38
-0.33473405 1.5645937 30 2.3418052e-38
1.8904282 3.4111996 30 2.3418052e-38
-1.4711095 -0.85196072 30 2.3418052e-38
-2.7896354 -2.2755075 30 2.3418052e-38
1.3327395 -1.0553699 30 2.3418052e-38
-0.91951787 -1.3093842 30 2.3418052e-38
-3.2686198 -1.2514489 30 2.3418052e-38
-3.6914542 0.25132844 30 2.3418052e-38
0.45268038 1.845286 30 2.3418052e-38
1.0688816 0.54542845 30 2.3418052e-38
3.0235112 -1.5551143 30 2.3418052e-38
0.54932207 1.6088024 30 2.3418052e-38
-0.65388829 -2.3092055 30 2.3418052e-38
-2.5130548 1.815091 30 2.3418052e-38
0.77611428 -0.19402745 30 2.3418052e-38
-0.084707618 -0.053147148 30 2.3418052e-38
2.6977346 -3.2190411 30 2.3418052e-38
-2.0940988 -4.2077012 30 2.3418052e-38
-1.8232259 1.8536037 30 2.3418052e-38
0.05347326 1.8992474 30 2.3418052e-38
-0.30970988 -1.2625687 30 2.3418052e-38
2.1541991 -2.2292209 30 2.3418052e-38
2.622261 1.4573079 30 2.3418052e-38
-4.569582 1.0995075 30 2.3418052e-38
1.742153 -3.3771145 30 2.3418052e-38
-4.4816914 1.0365521 30 2.3418052e-38
-0.099889293 -0.0047042063 30 2.3418052e-38
-1.6441811 -0.95219135 30 2.3418052e-38
-0.143977 -1.593509 30 2.3418052e-38
-0.23149253 -3.1916158 30 2.3418052e-38
0.3059074 -3.1853447 30 2.3418052e-38
-0.1651863 0.1127541 30 2.3418052e-38
-1.7776037 1.4594947 30 2.3418052e-38
-3.4435246 -2.0352244 30 2.3418052e-38
3.4522748 -0.57602024 30 2.3418052e-38
-3.311691 3.1926012 30 2.3418052e-38
4.0671496 2.3554811 30 2.3418052e-38
-0.18481486 -0.076442577 30 2.3418052e-38
4.2322989 -2.4693413 30 2.3418052e-38
2.5778339 1.0930561 30 2.3418052e-38
1.2972759 0.084112808 30 2.3418052e-38
1.0563159 0.7577576 30 2.3418052e-38
-3.9965661 0.16571081 30 2.3418052e-38
-1.0344976 4.2766595 30 2.3418052e-38
3.5398667 -0.6552431 30 2.3418052e-38
