# .PCD v0.7 - Point Cloud Data file format
VERSION 0.7
FIELDS x y z rgb
SIZE 4 4 4 4
TYPE F F F F
COUNT 1 1 1 1
WIDTH 46
HEIGHT 1
VIEWPOINT 0 0 0 1 0 0 0
POINTS 46
DATA ascii
3.0653634 7.7143922 -1.7644988 2.3509886e-38
3.1073275 7.7021012 -1.7653891 2.3509886e-38
3.1702743 7.7409253 -1.7780727 2.3509886e-38
2.9583206 7.8002691 -1.77328 2.3509886e-38
3.0159824 7.7076106 -1.7593074 2.3509886e-38
2.9753418 7.7228079 -1.7591919 2.3509886e-38
3.1823068 7.543817 -1.5421363 2.3509886e-38
3.1451659 7.5662842 -1.5433375 2.3509886e-38
3.2483139 7.5889564 -1.5548234 2.3509886e-38
2.8634601 7.6711903 -1.5422548 2.3509886e-38
2.8354466 7.7194142 -1.5489405 2.3509886e-38
2.8071392 7.7679238 -1.5557001 2.3509886e-38
2.9922671 7.5304356 -1.5262372 2.3509886e-38
3.0454791 7.5487986 -1.5331736 2.3509886e-38
3.0892472 7.5430803 -1.5352801 2.3509886e-38
2.9655964 7.5788455 -1.5328768 2.3509886e-38
2.9207685 7.5811572 -1.5302266 2.3509886e-38
2.890933 7.6225867 -1.535509 2.3509886e-38
3.372823 7.6569266 -1.3751059 2.3509886e-38
2.7628982 7.9037781 -1.3760765 2.3509886e-38
3.2224622 7.5285597 -1.3459109 2.3509886e-38
3.2865677 7.5684085 -1.3560963 2.3509886e-38
2.7831676 7.7015891 -1.345881 2.3509886e-38
2.7710967 7.7957988 -1.3597872 2.3509886e-38
3.121326 7.5089326 -1.3364781 2.3509886e-38
3.1689048 7.5120468 -1.3399707 2.3509886e-38
3.0398989 7.5349665 -1.3353657 2.3509886e-38
3.0856831 7.5343776 -1.3381095 2.3509886e-38
2.9522483 7.544733 -1.3315377 2.3509886e-38
2.9975863 7.5438218 -1.334132 2.3509886e-38
2.8708391 7.5696049 -1.3305421 2.3509886e-38
2.9193056 7.5773597 -1.3345767 2.3509886e-38
2.8446255 7.6207323 -1.3368895 2.3509886e-38
2.8086028 7.6463327 -1.3387792 2.3509886e-38
3.2126749 7.6158056 -1.1616172 2.3509886e-38
3.2781537 7.6586704 -1.1707603 2.3509886e-38
2.852993 7.7671838 -1.1628656 2.3509886e-38
2.8409605 7.8615141 -1.1747426 2.3509886e-38
3.0260746 7.6155171 -1.1516404 2.3509886e-38
3.0728788 7.616714 -1.1542416 2.3509886e-38
3.1170506 7.6109681 -1.1558311 2.3509886e-38
3.1653395 7.6148152 -1.1589193 2.3509886e-38
2.9454329 7.6451755 -1.1513922 2.3509886e-38
2.9903369 7.6420712 -1.1532696 2.3509886e-38
2.9115016 7.6768203 -1.1538436 2.3509886e-38
2.8858716 7.7312303 -1.1597319 2.3509886e-38
