# .PCD v0.7 - Point Cloud Data file format
VERSION 0.7
FIELDS x y z rgb
SIZE 4 4 4 4
TYPE F F F F
COUNT 1 1 1 1
WIDTH 227
HEIGHT 1
VIEWPOINT 0 0 0 1 0 0 0
POINTS 227
DATA ascii
1.5693508 -5.080584 -2.3677261 2.3509886e-38
1.5897275 -5.0524735 -2.3584769 2.3509886e-38
1.5341117 -5.0604229 -2.2085612 2.3509886e-38
1.5830638 -5.0312953 -2.2029715 2.3509886e-38
1.6081021 -5.0188255 -2.2011726 2.3509886e-38
1.5512578 -5.0220103 -2.1953154 2.3509886e-38
1.384814 -5.0401087 -2.0415738 2.3509886e-38
1.6815556 -4.8925834 -2.0207152 2.3509886e-38
1.3919435 -4.9640512 -2.0136933 2.3509886e-38
1.4177647 -4.9560518 -2.0134356 2.3509886e-38
1.6164863 -4.8687305 -2.0037537 2.3509886e-38
1.6439298 -4.865943 -2.0061255 2.3509886e-38
1.4541422 -4.8887935 -1.9921956 2.3509886e-38
1.4235131 -4.8792729 -1.9852479 2.3509886e-38
1.4759376 -4.8685298 -1.9870636 2.3509886e-38
1.5042784 -4.8699203 -1.9908222 2.3509886e-38
1.5512689 -4.8414512 -1.9857239 2.3509886e-38
1.5221598 -4.8377299 -1.9808975 2.3509886e-38
1.5745054 -4.8267503 -1.9830523 2.3509886e-38
1.2589468 -4.9892192 -1.8730085 2.3509886e-38
1.7619458 -4.7968421 -1.8601211 2.3509886e-38
1.2715778 -4.9301877 -1.8533244 2.3509886e-38
1.2848769 -4.8759136 -1.8354288 2.3509886e-38
1.3004687 -4.832139 -1.821492 2.3509886e-38
1.6827738 -4.7340703 -1.8288373 2.3509886e-38
1.7087984 -4.7285919 -1.8301562 2.3509886e-38
1.3234053 -4.8166084 -1.8182279 2.3509886e-38
1.3419383 -4.7857194 -1.809198 2.3509886e-38
1.3648508 -4.7710819 -1.8063445 2.3509886e-38
1.4108727 -4.7433224 -1.8013361 2.3509886e-38
1.4610431 -4.7299509 -1.8019764 2.3509886e-38
1.6166551 -4.7037516 -1.8104773 2.3509886e-38
1.6482968 -4.7152562 -1.8182062 2.3509886e-38
1.5869585 -4.6973114 -1.8047715 2.3509886e-38
1.3838974 -4.7434855 -1.7986182 2.3509886e-38
1.4340348 -4.730309 -1.7992243 2.3509886e-38
1.4817311 -4.709239 -1.7970202 2.3509886e-38
1.5019939 -4.6876659 -1.791768 2.3509886e-38
1.5324085 -4.6976991 -1.7986487 2.3509886e-38
1.556338 -4.6875687 -1.797869 2.3509886e-38
1.9316486 -4.861249 -1.7673328 2.3509886e-38
1.153837 -5.0135388 -1.7381532 2.3509886e-38
1.1691617 -4.9609981 -1.7220389 2.3509886e-38
1.1809331 -4.8958559 -1.7015525 2.3509886e-38
1.8548356 -4.7401972 -1.7197651 2.3509886e-38
1.8161504 -4.7140064 -1.7067854 2.3509886e-38
1.2001784 -4.8636513 -1.692523 2.3509886e-38
1.7463987 -4.6785903 -1.6872402 2.3509886e-38
1.7746848 -4.6793504 -1.6908461 2.3509886e-38
1.2105889 -4.7975764 -1.6717148 2.3509886e-38
1.2366168 -4.7946362 -1.6729262 2.3509886e-38
1.2647275 -4.7994494 -1.6768959 2.3509886e-38
1.6531351 -4.6506886 -1.6675956 2.3509886e-38
1.6814451 -4.6528997 -1.671526 2.3509886e-38
1.7044135 -4.6402121 -1.6701548 2.3509886e-38
1.2735072 -4.7319584 -1.6556247 2.3509886e-38
1.3011917 -4.7357607 -1.6593188 2.3509886e-38
1.3205441 -4.7094216 -1.6524928 2.3509886e-38
1.3391762 -4.6813316 -1.645077 2.3509886e-38
1.3698932 -4.6954837 -1.6525511 2.3509886e-38
1.391941 -4.6796741 -1.6495323 2.3509886e-38
1.4171145 -4.6744952 -1.6503028 2.3509886e-38
1.4371601 -4.6526327 -1.6452214 2.3509886e-38
1.4628634 -4.6492739 -1.6467227 2.3509886e-38
1.4905573 -4.6519728 -1.6504234 2.3509886e-38
1.5365913 -4.6280928 -1.6475765 2.3509886e-38
1.5622464 -4.6241651 -1.6490709 2.3509886e-38
1.6171229 -4.6260772 -1.6557082 2.3509886e-38
1.5062317 -4.6174521 -1.640955 2.3509886e-38
1.5876819 -4.6194525 -1.6503357 2.3509886e-38
1.9795355 -4.8334732 -1.6302719 2.3509886e-38
1.1038824 -5.0375476 -1.6096568 2.3509886e-38
1.9194664 -4.757762 -1.6013194 2.3509886e-38
1.11941 -4.9833269 -1.5941846 2.3509886e-38
1.8729764 -4.7135925 -1.5831271 2.3509886e-38
1.1294892 -4.9077458 -1.5718786 2.3509886e-38
1.8289514 -4.6740475 -1.5666037 2.3509886e-38
1.1450268 -4.8585892 -1.5580354 2.3509886e-38
1.1660951 -4.834341 -1.5521986 2.3509886e-38
1.7681214 -4.6620445 -1.5562817 2.3509886e-38
1.795608 -4.6606865 -1.5589491 2.3509886e-38
1.1763737 -4.7671843 -1.5325949 2.3509886e-38
1.2052194 -4.7762966 -1.5375346 2.3509886e-38
1.224721 -4.7485132 -1.5306364 2.3509886e-38
1.245927 -4.7281046 -1.5261422 2.3509886e-38
1.2703251 -4.7201347 -1.5256982 2.3509886e-38
1.292115 -4.7027259 -1.5222396 2.3509886e-38
1.3152951 -4.6907024 -1.5205586 2.3509886e-38
1.3666158 -4.6842504 -1.5230281 2.3509886e-38
1.6424643 -4.6206694 -1.530635 2.3509886e-38
1.674873 -4.6347132 -1.5381745 2.3509886e-38
1.6986623 -4.6245546 -1.5377371 2.3509886e-38
1.5876963 -4.6194944 -1.5246477 2.3509886e-38
1.6097817 -4.6050768 -1.5226535 2.3509886e-38
1.7235161 -4.6172881 -1.538304 2.3509886e-38
1.3368309 -4.6731334 -1.5171142 2.3509886e-38
1.3878621 -4.6659613 -1.5194262 2.3509886e-38
1.4106498 -4.6531711 -1.5176485 2.3509886e-38
1.4310373 -4.6328106 -1.5134337 2.3509886e-38
1.4562201 -4.6281605 -1.5143875 2.3509886e-38
1.4755213 -4.6050458 -1.5093344 2.3509886e-38
1.5025115 -4.6060481 -1.5122236 2.3509886e-38
1.5331868 -4.6178389 -1.5187125 2.3509886e-38
1.5552365 -4.6034155 -1.5166295 2.3509886e-38
1.0886673 -5.0957217 -1.494242 2.3509886e-38
1.9725469 -4.8164096 -1.492512 2.3509886e-38
1.1042082 -5.0390344 -1.4792962 2.3509886e-38
1.9140594 -4.74436 -1.4670558 2.3509886e-38
1.1150496 -4.9639149 -1.4589396 2.3509886e-38
1.1293977 -4.9073482 -1.4440343 2.3509886e-38
1.8691714 -4.7040167 -1.4515309 2.3509886e-38
1.8349485 -4.689374 -1.4440246 2.3509886e-38
1.1448154 -4.8576922 -1.4311689 2.3509886e-38
1.1701068 -4.8509727 -1.4309766 2.3509886e-38
1.1885314 -4.8164525 -1.422612 2.3509886e-38
1.7394078 -4.6598616 -1.4263363 2.3509886e-38
1.7636902 -4.6503606 -1.4262385 2.3509886e-38
1.7912657 -4.6494155 -1.4288088 2.3509886e-38
1.2105334 -4.7973561 -1.4188265 2.3509886e-38
1.2304856 -4.7708645 -1.4128797 2.3509886e-38
1.2521811 -4.7518377 -1.4091696 2.3509886e-38
1.2945671 -4.7116504 -1.4012001 2.3509886e-38
1.342991 -4.6946673 -1.4002599 2.3509886e-38
1.5670782 -4.6384664 -1.4040011 2.3509886e-38
1.592315 -4.6329322 -1.4048332 2.3509886e-38
1.62137 -4.638227 -1.4089966 2.3509886e-38
1.6754332 -4.6362634 -1.4136586 2.3509886e-38
1.7014215 -4.6320667 -1.415079 2.3509886e-38
1.6366824 -4.604403 -1.4013087 2.3509886e-38
1.267758 -4.7105961 -1.3988909 2.3509886e-38
1.3125908 -4.6810584 -1.3941293 2.3509886e-38
1.3649303 -4.678473 -1.3975445 2.3509886e-38
1.414183 -4.6648259 -1.3978202 2.3509886e-38
1.4408158 -4.6644673 -1.3999568 2.3509886e-38
1.3780559 -4.6329927 -1.3860977 2.3509886e-38
1.4598571 -4.6397195 -1.3948069 2.3509886e-38
1.4830288 -4.6284766 -1.3937448 2.3509886e-38
1.5081187 -4.6232371 -1.3945286 2.3509886e-38
1.53308 -4.6175175 -1.3952082 2.3509886e-38
1.1169724 -5.0972838 -1.3658036 2.3509886e-38
1.9980012 -4.8785615 -1.3798372 2.3509886e-38
1.1306684 -5.0334463 -1.3502681 2.3509886e-38
1.9421117 -4.8138928 -1.3586482 2.3509886e-38
1.1454651 -4.9771628 -1.3367621 2.3509886e-38
1.1874173 -4.9227381 -1.3254155 2.3509886e-38
1.8598965 -4.7531309 -1.335922 2.3509886e-38
1.881734 -4.7356324 -1.333758 2.3509886e-38
1.8131839 -4.7063065 -1.3200719 2.3509886e-38
1.1548836 -4.9004135 -1.3177567 2.3509886e-38
1.1983461 -4.856226 -1.309181 2.3509886e-38
1.2513801 -4.8518767 -1.3114735 2.3509886e-38
1.2202288 -4.8357797 -1.3053753 2.3509886e-38
1.3177643 -4.7960777 -1.3018318 2.3509886e-38
1.643888 -4.7026439 -1.303892 2.3509886e-38
1.7835891 -4.7028289 -1.3164558 2.3509886e-38
1.6917695 -4.681469 -1.3028674 2.3509886e-38
1.7204939 -4.6839905 -1.3060611 2.3509886e-38
1.7434934 -4.6708069 -1.3049157 2.3509886e-38
1.2628773 -4.7924285 -1.297176 2.3509886e-38
1.288277 -4.7868385 -1.2974731 2.3509886e-38
1.3869778 -4.7540436 -1.296183 2.3509886e-38
1.3252999 -4.7263818 -1.2847819 2.3509886e-38
1.3526585 -4.7284617 -1.2872572 2.3509886e-38
1.5049814 -4.69699 -1.2909412 2.3509886e-38
1.4448444 -4.6775098 -1.2813532 2.3509886e-38
1.4715228 -4.6767955 -1.2832531 2.3509886e-38
1.5211092 -4.6630602 -1.2837898 2.3509886e-38
1.5464116 -4.657671 -1.2845203 2.3509886e-38
1.5730381 -4.6561074 -1.2863455 2.3509886e-38
1.6536421 -4.6521153 -1.2922679 2.3509886e-38
1.5942837 -4.6386604 -1.2838167 2.3509886e-38
1.1774051 -5.2415061 -1.2732664 2.3509886e-38
1.393191 -4.6838765 -1.2790257 2.3509886e-38
1.4160881 -4.6711102 -1.277549 2.3509886e-38
1.1758466 -5.1091728 -1.2426004 2.3509886e-38
1.9478861 -4.9021125 -1.2502331 2.3509886e-38
1.1856201 -5.0308347 -1.2250426 2.3509886e-38
1.858546 -4.8240485 -1.2252866 2.3509886e-38
1.8921505 -4.8355584 -1.2307125 2.3509886e-38
1.2068276 -5.0032082 -1.219839 2.3509886e-38
1.2213454 -4.9494295 -1.2082715 2.3509886e-38
1.2443278 -4.931284 -1.2054176 2.3509886e-38
1.7885528 -4.7915206 -1.2121952 2.3509886e-38
1.8140074 -4.7830329 -1.2124369 2.3509886e-38
1.7250749 -4.773632 -1.2030277 2.3509886e-38
1.7513292 -4.7679386 -1.20389 2.3509886e-38
1.2617538 -4.8920979 -1.1974392 2.3509886e-38
1.2876664 -4.8864994 -1.1977047 2.3509886e-38
1.3059589 -4.8525391 -1.1910424 2.3509886e-38
1.3314534 -4.8459001 -1.1911097 2.3509886e-38
1.3497044 -4.8134151 -1.1848477 2.3509886e-38
1.4021782 -4.8061452 -1.1866118 2.3509886e-38
1.3717082 -4.7950535 -1.1820817 2.3509886e-38
1.4235653 -4.7859945 -1.183463 2.3509886e-38
1.4513453 -4.7874093 -1.1856778 2.3509886e-38
1.4745563 -4.7736983 -1.1841803 2.3509886e-38
1.6930486 -4.7629757 -1.198089 2.3509886e-38
1.5201362 -4.7442875 -1.1807731 2.3509886e-38
1.6318265 -4.7478938 -1.1899263 2.3509886e-38
1.6611118 -4.7519159 -1.1931002 2.3509886e-38
1.5709127 -4.7314668 -1.1816164 2.3509886e-38
1.5989232 -4.7327261 -1.1840079 2.3509886e-38
1.4918222 -4.7413111 -1.1780698 2.3509886e-38
1.5403051 -4.7219071 -1.1771964 2.3509886e-38
1.2785276 -5.1811566 -1.1343527 2.3509886e-38
1.2909616 -5.1160946 -1.1215743 2.3509886e-38
1.846916 -4.9478755 -1.1226125 2.3509886e-38
1.303076 -5.0523133 -1.1090742 2.3509886e-38
1.3199586 -5.0090432 -1.1010795 2.3509886e-38
1.8160788 -4.9442172 -1.1196072 2.3509886e-38
1.7724432 -4.9047098 -1.1085415 2.3509886e-38
1.7084986 -4.8874741 -1.1005369 2.3509886e-38
1.3377565 -4.9706888 -1.094175 2.3509886e-38
1.364383 -4.9657493 -1.0946469 2.3509886e-38
1.3892802 -4.9545536 -1.0937693 2.3509886e-38
1.4111738 -4.9330125 -1.0906321 2.3509886e-38
1.4588336 -4.9045658 -1.0876646 2.3509886e-38
1.4864682 -4.903266 -1.0890894 2.3509886e-38
1.4288687 -4.8976297 -1.0844505 2.3509886e-38
1.5062106 -4.8761754 -1.0848111 2.3509886e-38
1.5313029 -4.8667884 -1.0844938 2.3509886e-38
1.558336 -4.8635073 -1.085568 2.3509886e-38
1.5910465 -4.8774576 -1.0905284 2.3509886e-38
1.6456108 -4.8709188 -1.092864 2.3509886e-38
1.7276288 -4.8602586 -1.0964329 2.3509886e-38
1.612425 -4.8564982 -1.0877172 2.3509886e-38
1.6628196 -4.8380699 -1.0874346 2.3509886e-38
