# .PCD v0.7 - Point Cloud Data file format
VERSION 0.7
FIELDS x y z rgb
SIZE 4 4 4 4
TYPE F F F F
COUNT 1 1 1 1
WIDTH 46
HEIGHT 1
VIEWPOINT 0 0 0 1 0 0 0
POINTS 46
DATA ascii
0.052623749 0.074066162 -0.36223054 2.3418052e-38
0.094587803 0.061775208 -0.36312079 2.3418052e-38
0.1575346 0.10059929 -0.37580442 2.3418052e-38
-0.054419041 0.1599431 -0.37101173 2.3418052e-38
0.0032427311 0.067284584 -0.35703909 2.3418052e-38
-0.037397861 0.082481861 -0.35692358 2.3418052e-38
0.16956711 -0.09650898 -0.13986802 2.3418052e-38
0.13242626 -0.074041843 -0.14106917 2.3418052e-38
0.23557425 -0.051369667 -0.15255511 2.3418052e-38
-0.14927959 0.030864239 -0.13998652 2.3418052e-38
-0.17729306 0.079088211 -0.14667225 2.3418052e-38
-0.2056005 0.12759781 -0.15343177 2.3418052e-38
-0.020472527 -0.10989046 -0.12396896 2.3418052e-38
0.032739401 -0.091527462 -0.13090527 2.3418052e-38
0.076507568 -0.097245693 -0.13301182 2.3418052e-38
-0.047143221 -0.061480522 -0.13060856 2.3418052e-38
-0.091971159 -0.059168816 -0.1279583 2.3418052e-38
-0.12180662 -0.017739296 -0.1332407 2.3418052e-38
0.36008334 0.016600609 0.027162433 2.3418052e-38
-0.24984145 0.26345205 0.026191831 2.3418052e-38
0.20972252 -0.11176634 0.056357384 2.3418052e-38
0.27382803 -0.071917534 0.046172023 2.3418052e-38
-0.22957206 0.061263084 0.056387305 2.3418052e-38
-0.24164295 0.15547276 0.042481065 2.3418052e-38
0.10858631 -0.13139343 0.065790176 2.3418052e-38
0.15616512 -0.12827921 0.062297583 2.3418052e-38
0.027159214 -0.10535955 0.066902637 2.3418052e-38
0.072943449 -0.10594845 0.064158797 2.3418052e-38
-0.060491323 -0.095592976 0.070730567 2.3418052e-38
-0.015153408 -0.096504211 0.068136334 2.3418052e-38
-0.14190054 -0.070721149 0.071726203 2.3418052e-38
-0.093434095 -0.062966347 0.067691565 2.3418052e-38
-0.16811419 -0.019593716 0.065378785 2.3418052e-38
-0.20413685 0.0060067177 0.063489079 2.3418052e-38
0.1999352 -0.024520397 0.24065113 2.3418052e-38
0.265414 0.018344402 0.23150802 2.3418052e-38
-0.15974665 0.12685776 0.23940265 2.3418052e-38
-0.17177916 0.22118807 0.22752571 2.3418052e-38
0.01333499 -0.024808884 0.25062788 2.3418052e-38
0.060139179 -0.023612022 0.24802673 2.3418052e-38
0.10431099 -0.02935791 0.24643719 2.3418052e-38
0.15259981 -0.025510788 0.24334896 2.3418052e-38
-0.067306757 0.0048494339 0.25087607 2.3418052e-38
-0.022402763 0.001745224 0.24899864 2.3418052e-38
-0.10123801 0.036494255 0.24842465 2.3418052e-38
-0.12686801 0.090904236 0.24253643 2.3418052e-38
