# .PCD v0.7 - Point Cloud Data file format
VERSION 0.7
FIELDS x y z rgb
SIZE 4 4 4 4
TYPE F F F F
COUNT 1 1 1 1
WIDTH 30
HEIGHT 30
VIEWPOINT 0 0 0 1 0 0 0
POINTS 900
DATA ascii
-5.1781025 2.0729823 18.299999 9.1476764e-41
-5.9468188 2.3120012 17.700001 9.1476764e-41
0 3.6755943 19.299999 9.1476764e-41
-2.9233081 4.1826143 18.6 9.1476764e-41
8.4765863 1.4620141 4.9000001 9.1476764e-41
3.6231277 6.9593782 16.200001 9.1476764e-41
-3.6906121 9.2400961 9 9.1476764e-41
7.503345 2.0024512 16.299999 9.1476764e-41
5.399601 7.4056945 14 9.1476764e-41
6.7050729 1.7894129 17.200001 9.1476764e-41
5.1678371 5.3294897 16.700001 9.1476764e-41
-9.2641649 2.2749162 13 9.1476764e-41
-1.6559994 9.100421 6.1999998 9.1476764e-41
-8.4967766 4.1127591 6.6999998 9.1476764e-41
-8.1044064 5.0900488 12.9 9.1476764e-41
6.1972218 7.2100239 6.9000001 9.1476764e-41
-5.6259289 4.843442 16.700001 9.1476764e-41
-3.8249269 8.12465 5.5999999 9.1476764e-41
-7.9658461 1.7044926 4.1999998 9.1476764e-41
0.68230861 6.8003273 17.299999 9.1476764e-41
0.49068755 9.8055716 11.9 9.1476764e-41
8.0586367 4.6225934 13.7 9.1476764e-41
5.640532 7.9009113 12.4 9.1476764e-41
-4.8153791 5.2737203 17 9.1476764e-41
1.1559514 9.5866461 12.6 9.1476764e-41
0.059999 5.9997001 18 9.1476764e-41
-4.1881104 8.6700478 7.3000002 9.1476764e-41
-7.0250292 1.2841216 17 9.1476764e-41
-8.3658609 5.1383238 8.1000004 9.1476764e-41
-8.0947866 5.3126664 12.5 9.1476764e-41
-9.5797319 0.968885 12.7 9.1476764e-41
-0.099873252 9.9869928 10.5 9.1476764e-41
7.8398814 5.488739 12.9 9.1476764e-41
-8.1652946 3.8520079 5.6999998 9.1476764e-41
9.9853325 0.20768866 9.5 9.1476764e-41
7.0504942 5.4809246 14.5 9.1476764e-41
3.7528827 6.4051442 16.700001 9.1476764e-41
6.9161458 3.3476744 16.4 9.1476764e-41
0.5193035 8.6446705 15 9.1476764e-41
2.4944153 5.7391539 17.799999 9.1476764e-41
-3.5049796 3.2054822 18.799999 9.1476764e-41
-8.2941856 1.4305542 15.4 9.1476764e-41
-1.3876827 0.25365779 19.9 9.1476764e-41
-8.3656197 3.7438495 6 9.1476764e-41
7.3286443 0.22576699 16.799999 9.1476764e-41
-4.6577792 2.084487 18.6 9.1476764e-41
9.8008461 1.8929918 9.3999996 9.1476764e-41
2.3458724 2.0607967 19.5 9.1476764e-41
-1.2710088 7.4043593 3.4000001 9.1476764e-41
7.8397369 5.2581863 6.6999998 9.1476764e-41
-7.76722 6.2912874 9.6999998 9.1476764e-41
-9.8362341 0.59874487 11.7 9.1476764e-41
-5.9798021 6.4188757 5.1999998 9.1476764e-41
-5.3960505 8.4185886 10.1 9.1476764e-41
-9.8169403 1.2913917 8.6000004 9.1476764e-41
-7.6737742 5.372447 6.5 9.1476764e-41
7.0596519 4.3360481 4.4000001 9.1476764e-41
-3.4075158 7.2380133 4 9.1476764e-41
-4.880559 5.3451047 3.0999999 9.1476764e-41
-4.0757689 9.1267796 9.6999998 9.1476764e-41
9.6396818 1.8618635 8.1000004 9.1476764e-41
-8.6881523 4.8688817 10.9 9.1476764e-41
0.22267494 7.4202709 16.700001 9.1476764e-41
-9.9949169 0.10791315 9.6999998 9.1476764e-41
-0.30599269 5.0937572 18.6 9.1476764e-41
-9.3035994 3.6170487 10.6 9.1476764e-41
1.8130454 9.4272413 12.8 9.1476764e-41
9.2941484 2.282279 7.0999999 9.1476764e-41
7.8145895 5.4710321 7 9.1476764e-41
0.95049316 7.2702518 16.799999 9.1476764e-41
-5.9833932 7.870769 11.5 9.1476764e-41
-7.1907139 4.9278426 14.9 9.1476764e-41
-9.6609898 1.1727211 12.3 9.1476764e-41
-6.1629419 5.6363239 4.5 9.1476764e-41
8.5590372 1.6531417 5.0999999 9.1476764e-41
7.2856045 4.0828872 15.5 9.1476764e-41
8.18925 5.6121459 8.8000002 9.1476764e-41
8.4306231 1.9810572 15 9.1476764e-41
3.6281796 0.58847862 19.299999 9.1476764e-41
-5.2298245 5.3934159 3.4000001 9.1476764e-41
-4.9075804 8.3758974 12.4 9.1476764e-41
-1.0278152 4.8221989 18.700001 9.1476764e-41
1.4383707 8.9129725 14.3 9.1476764e-41
-1.4531183 9.0043573 5.9000001 9.1476764e-41
-5.9385881 7.1953573 13.6 9.1476764e-41
-6.9464083 5.0732059 15.1 9.1476764e-41
-9.3539963 2.3964031 7.4000001 9.1476764e-41
-9.7688789 0.39875591 12.1 9.1476764e-41
1.0999759 2.9223368 19.5 9.1476764e-41
-1.5428563 7.6111493 3.6999998 9.1476764e-41
3.1510832 1.8922653 19.299999 9.1476764e-41
-5.885922 7.5839252 12.8 9.1476764e-41
-1.8074299 9.3980417 12.9 9.1476764e-41
4.7614355 6.1350408 16.299999 9.1476764e-41
3.1888745 7.3369665 4 9.1476764e-41
8.9498186 4.4430561 10.4 9.1476764e-41
-1.0538718 9.5419788 12.8 9.1476764e-41
-4.6629081 5.5359993 16.9 9.1476764e-41
-4.6377549 8.6948967 11.7 9.1476764e-41
0.38820559 9.6999636 12.4 9.1476764e-41
3.8897867 8.7103138 7 9.1476764e-41
-3.6906121 9.2400961 9 9.1476764e-41
-0.83077168 6.8898349 17.200001 9.1476764e-41
-2.2098503 7.9847708 4.4000001 9.1476764e-41
-5.9644847 8.0109253 10.5 9.1476764e-41
1.2577685 8.3221397 15.4 9.1476764e-41
-6.8860631 6.5553136 6.9000001 9.1476764e-41
-0.27221638 9.0711575 14.2 9.1476764e-41
-1.1655074 2.1334469 19.700001 9.1476764e-41
-3.4815576 7.5913606 15.5 9.1476764e-41
-2.424381 8.431036 14.8 9.1476764e-41
9.127183 4.0846705 9.8999996 9.1476764e-41
-8.0866261 4.0145326 14.3 9.1476764e-41
6.28582 3.7747142 16.799999 9.1476764e-41
-2.0094907 8.9862089 6.0999999 9.1476764e-41
-9.5217676 0.5796029 13 9.1476764e-41
3.2363772 9.4485903 10.5 9.1476764e-41
-6.0812979 7.0751548 13.6 9.1476764e-41
5.5188117 7.5691953 6.5 9.1476764e-41
-0.69718671 9.9435368 10.8 9.1476764e-41
-6.2614036 7.5864897 8.1999998 9.1476764e-41
8.9758244 3.6979153 12.4 9.1476764e-41
5.7440367 7.2502441 6.1999998 9.1476764e-41
8.7087584 1.0571324 5.1999998 9.1476764e-41
-1.7902063 9.837945 9.8999996 9.1476764e-41
-7.2401972 4.7517934 15 9.1476764e-41
5.5606613 7.7890334 7.0999999 9.1476764e-41
9.44907 1.051227 13.1 9.1476764e-41
-8.1285925 4.9925933 13 9.1476764e-41
-0.29941458 9.9774923 9.3999996 9.1476764e-41
-7.2381701 2.8140523 16.299999 9.1476764e-41
-0.93428946 5.7893949 18.1 9.1476764e-41
0.93376362 2.6397123 19.6 9.1476764e-41
3.1560166 6.0621414 17.299999 9.1476764e-41
6.3180399 7.0599132 6.8000002 9.1476764e-41
1.2947199 9.9032164 9.5 9.1476764e-41
-5.9861574 7.2529936 6.5999999 9.1476764e-41
-3.6533148 8.405551 14 9.1476764e-41
-7.0120182 6.9477768 8.3999996 9.1476764e-41
-9.0091095 1.0935912 14.2 9.1476764e-41
9.2975283 3.6146884 10.7 9.1476764e-41
-7.1449552 4.1939979 15.6 9.1476764e-41
-8.697752 1.1441656 14.8 9.1476764e-41
-0.41613466 6.9272532 17.200001 9.1476764e-41
3.2817473 8.4610958 14.2 9.1476764e-41
-4.0105596 2.8679988 18.700001 9.1476764e-41
0.79910696 9.9675188 10.1 9.1476764e-41
0.96839309 6.8718424 17.200001 9.1476764e-41
-3.803761 8.0796909 5.5 9.1476764e-41
-1.408856 0.07162635 19.9 9.1476764e-41
-0.79850733 9.9600391 10.4 9.1476764e-41
-2.517894 9.0978136 6.6999998 9.1476764e-41
1.6897074 9.8435202 10.5 9.1476764e-41
-5.1959028 8.1063309 12.7 9.1476764e-41
5.4246917 0.11283018 18.4 9.1476764e-41
-9.765996 0.79077798 12 9.1476764e-41
2.6097088 1.0146013 19.6 9.1476764e-41
-4.2704225 8.8404465 8.1000004 9.1476764e-41
0.49335289 9.8588343 8.3999996 9.1476764e-41
-5.1210523 4.6834631 17.200001 9.1476764e-41
-6.7838101 5.3833003 5 9.1476764e-41
3.9576151 3.4766769 18.5 9.1476764e-41
-9.283226 3.7164123 9.8999996 9.1476764e-41
-8.0410805 1.3042364 4.1999998 9.1476764e-41
9.2049084 3.6850591 11.3 9.1476764e-41
1.6572028 4.0315852 19 9.1476764e-41
0.78037184 4.288475 19 9.1476764e-41
5.7977486 0.8809672 18.1 9.1476764e-41
-0.46628183 9.3178635 13.6 9.1476764e-41
-5.4438853 6.3335705 15.5 9.1476764e-41
7.1762686 0.9440186 16.9 9.1476764e-41
-5.5159135 7.8920655 7.3000002 9.1476764e-41
8.4306231 1.9810572 5 9.1476764e-41
-9.0983648 1.1044257 6 9.1476764e-41
3.7104392 4.8808441 17.9 9.1476764e-41
-3.1320035 1.923681 19.299999 9.1476764e-41
6.5885696 7.5120401 10.4 9.1476764e-41
8.3650417 0.93062681 15.4 9.1476764e-41
8.5162611 4.551187 12.6 9.1476764e-41
6.5040827 6.1916804 14.4 9.1476764e-41
-0.27118021 5.4190841 18.4 9.1476764e-41
6.991291 6.3938913 6.8000002 9.1476764e-41
-8.6409645 4.1825514 12.8 9.1476764e-41
-5.8097897 7.6424046 7.1999998 9.1476764e-41
4.1181579 7.0285687 15.8 9.1476764e-41
-2.9212723 7.1067691 3.5999999 9.1476764e-41
-7.269875 4.3656516 15.3 9.1476764e-41
1.78949 9.8340092 10.3 9.1476764e-41
-0.66024715 9.4166908 13.3 9.1476764e-41
-1.4868907 9.8381481 9 9.1476764e-41
7.3993936 0.59914809 16.700001 9.1476764e-41
-4.7234821 5.6079154 16.799999 9.1476764e-41
-3.6161544 9.3232737 10 9.1476764e-41
-4.550323 1.3618219 18.799999 9.1476764e-41
-0.94428486 8.5497561 4.9000001 9.1476764e-41
-9.7742453 2.0914447 10.3 9.1476764e-41
-1.390335 7.6404819 16.299999 9.1476764e-41
-7.1797457 5.1343217 5.3000002 9.1476764e-41
7.5037894 6.4601192 8.6000004 9.1476764e-41
1.1072911 8.4695873 15.2 9.1476764e-41
-4.0029316 5.2655993 17.5 9.1476764e-41
-7.3956275 3.5797617 15.7 9.1476764e-41
0.99607617 7.6189127 3.5999999 9.1476764e-41
-1.4601754 9.0480871 6 9.1476764e-41
-9.9898357 0.20778233 10.4 9.1476764e-41
3.0081344 8.2408209 14.8 9.1476764e-41
7.6914682 3.079174 15.6 9.1476764e-41
3.336225 0.71386904 19.4 9.1476764e-41
9.3199253 3.6233959 9.8999996 9.1476764e-41
1.18415 7.8350363 3.9000001 9.1476764e-41
-4.0776043 9.1308899 10 9.1476764e-41
4.8782902 8.5201111 8.1000004 9.1476764e-41
3.0847106 8.7203531 13.8 9.1476764e-41
-6.5187678 5.6121001 15.1 9.1476764e-41
4.3426886 8.341526 13.4 9.1476764e-41
-3.1355832 9.4619303 9.1999998 9.1476764e-41
9.074851 3.2182422 12.7 9.1476764e-41
3.9504919 6.5904179 16.4 9.1476764e-41
7.6201873 6.2994242 8.5 9.1476764e-41
1.4383707 8.9129725 14.3 9.1476764e-41
-4.4416485 4.5805855 17.700001 9.1476764e-41
7.2544756 2.9887435 3.8000002 9.1476764e-41
0.17433286 8.7154808 14.9 9.1476764e-41
5.8609691 4.5562096 16.700001 9.1476764e-41
9.6046982 2.666415 9.1999998 9.1476764e-41
-8.0047235 4.1754513 14.3 9.1476764e-41
9.5528622 2.345809 8.1999998 9.1476764e-41
-5.7629833 7.1265717 14 9.1476764e-41
4.4947548 5.6733747 16.9 9.1476764e-41
-2.026273 7.0465746 3.1999998 9.1476764e-41
-5.5527415 5.9604583 4.1999998 9.1476764e-41
-2.533385 9.5232325 11.7 9.1476764e-41
-2.0371099 7.6576881 16.1 9.1476764e-41
8.3263321 5.4646316 10.9 9.1476764e-41
-7.4174342 0.30277228 16.700001 9.1476764e-41
-1.6464667 9.5916185 7.6999998 9.1476764e-41
3.4117901 9.3466406 9 9.1476764e-41
7.723485 5.8811378 12.4 9.1476764e-41
-7.6216822 2.8757539 15.8 9.1476764e-41
4.8464961 8.6643791 11.2 9.1476764e-41
-8.0161991 5.9783397 10 9.1476764e-41
-9.377492 2.3027449 12.6 9.1476764e-41
8.5624819 4.9116092 11.6 9.1476764e-41
5.8325095 2.2675602 17.799999 9.1476764e-41
2.1967466 8.6031561 14.6 9.1476764e-41
-0.76216799 8.4456558 4.6999998 9.1476764e-41
7.1907139 4.9278426 5.0999999 9.1476764e-41
0.72260362 7.2019334 3.0999999 9.1476764e-41
8.896925 1.5345126 5.6999998 9.1476764e-41
-5.848875 8.0218859 11.2 9.1476764e-41
3.6824014 9.2195396 11.2 9.1476764e-41
-2.6539445 9.5893993 9 9.1476764e-41
7.3452792 6.4526644 7.9000001 9.1476764e-41
-6.0906458 3.9107587 16.9 9.1476764e-41
9.6515074 0.29732534 7.4000001 9.1476764e-41
-3.7998488 7.1239843 4.0999999 9.1476764e-41
-6.6159773 3.367321 3.3000002 9.1476764e-41
-8.8022003 4.5914335 8.8000002 9.1476764e-41
6.1109109 4.3699851 16.6 9.1476764e-41
9.7438335 1.5804173 8.3999996 9.1476764e-41
7.0051904 5.9099331 6 9.1476764e-41
5.2738748 6.795311 4.9000001 9.1476764e-41
9.8239784 0.49945185 11.8 9.1476764e-41
-3.803761 8.0796909 14.5 9.1476764e-41
-7.8320551 5.6007957 7.3000002 9.1476764e-41
-9.5889416 0.87304091 7.3000002 9.1476764e-41
5.4469829 8.3138666 8.8999996 9.1476764e-41
7.7972817 2.5908296 15.7 9.1476764e-41
9.8607292 0.89778626 11.4 9.1476764e-41
7.1899538 6.3162141 12.9 9.1476764e-41
-8.7636375 2.5275798 5.9000001 9.1476764e-41
-0.1569099 7.844449 3.8000002 9.1476764e-41
-3.5683842 3.1347461 18.799999 9.1476764e-41
-7.1530814 1.9858077 3.3000002 9.1476764e-41
-7.6905789 6.1028681 8.1000004 9.1476764e-41
6.8984318 4.3326249 15.8 9.1476764e-41
-8.5206537 5.233398 9.8999996 9.1476764e-41
0.31687605 7.917676 3.9000001 9.1476764e-41
-7.6891036 1.0898088 16.299999 9.1476764e-41
2.4944835 2.3275652 19.4 9.1476764e-41
-7.4789815 3.9968529 4.6999998 9.1476764e-41
8.2011795 4.2779269 6.1999998 9.1476764e-41
-0.30487379 4.3482242 19 9.1476764e-41
-3.5329096 2.1699181 19.1 9.1476764e-41
-9.7746611 1.4852586 11.5 9.1476764e-41
4.294632 7.0047226 15.7 9.1476764e-41
9.9183931 0.90303642 9.1000004 9.1476764e-41
-6.4052296 5.7413449 15.1 9.1476764e-41
8.8784208 2.2745652 14 9.1476764e-41
-8.1046038 3.6270373 5.4000001 9.1476764e-41
-9.0845175 4.1751099 9.8000002 9.1476764e-41
7.7512221 6.0256581 8.1000004 9.1476764e-41
-3.9347405 9.0530558 11.6 9.1476764e-41
7.2082787 0.65628958 3.0999999 9.1476764e-41
-2.6197243 0.98845398 19.6 9.1476764e-41
6.6995583 6.3777671 13.8 9.1476764e-41
7.1322169 0.36260247 17 9.1476764e-41
6.6995583 6.3777671 6.1999998 9.1476764e-41
5.2243323 3.2087924 17.9 9.1476764e-41
3.016072 9.4155884 8.5 9.1476764e-41
-8.9498186 4.4430561 10.4 9.1476764e-41
9.8297548 0.69707555 8.3000002 9.1476764e-41
7.4652991 3.0755999 15.9 9.1476764e-41
8.5497503 2.7462292 14.4 9.1476764e-41
-9.0311956 4.1506038 11.1 9.1476764e-41
-4.5266042 7.3830791 15 9.1476764e-41
0.23996399 7.9964004 16 9.1476764e-41
-4.072504 9.1194687 10.5 9.1476764e-41
-4.4960222 7.3331981 4.9000001 9.1476764e-41
-9.6283655 2.4666936 11.1 9.1476764e-41
6.0583868 7.1927705 13.4 9.1476764e-41
0.92299098 6.5496631 17.5 9.1476764e-41
-5.1565294 5.2125044 16.799999 9.1476764e-41
-3.1126103 1.9549043 19.299999 9.1476764e-41
1.0809594 5.6206341 18.200001 9.1476764e-41
7.2719007 6.6505232 11.7 9.1476764e-41
-9.4017687 3.3341782 9.3000002 9.1476764e-41
9.5465069 1.4505905 12.6 9.1476764e-41
9.4271364 3.0280509 8.6000004 9.1476764e-41
5.884943 6.8467102 14.3 9.1476764e-41
-5.1591163 3.3126304 17.9 9.1476764e-41
-6.3173018 0.89537758 17.700001 9.1476764e-41
-4.9692531 4.3653779 17.5 9.1476764e-41
-9.5794964 2.1501725 11.9 9.1476764e-41
-8.9908466 2.9874194 13.2 9.1476764e-41
-5.180006 5.5603542 3.5 9.1476764e-41
-7.160409 5.9193363 13.7 9.1476764e-41
-1.5181665 8.3429708 15.3 9.1476764e-41
0.4780224 6.8177338 17.299999 9.1476764e-41
-9.6699696 0.49162203 12.5 9.1476764e-41
9.8514156 1.3962823 11 9.1476764e-41
-6.8855014 3.5916386 16.299999 9.1476764e-41
-8.784729 1.6057813 5.5 9.1476764e-41
-3.947417 8.1717749 5.8000002 9.1476764e-41
9.0790625 4.1726031 10.4 9.1476764e-41
-4.8912416 7.801651 6.0999999 9.1476764e-41
-8.8112421 4.4846411 8.5 9.1476764e-41
-7.1052485 6.4981108 7.3000002 9.1476764e-41
5.3446774 6.8865395 5.0999999 9.1476764e-41
-8.597147 1.0435842 5 9.1476764e-41
9.4535828 3.246501 10.3 9.1476764e-41
-4.7321849 6.3558183 3.9000001 9.1476764e-41
-7.3820229 4.6363492 14.9 9.1476764e-41
2.6844923 6.9212356 16.700001 9.1476764e-41
-1.390335 7.6404819 16.299999 9.1476764e-41
0.22376108 2.7910442 19.6 9.1476764e-41
5.21171 7.7838345 6.5 9.1476764e-41
5.5119843 5.3533192 3.5999999 9.1476764e-41
2.4487801 6.7084632 17 9.1476764e-41
-4.6250768 8.2685347 13.2 9.1476764e-41
-0.44609088 2.7642357 19.6 9.1476764e-41
9.2147264 3.2678468 12.1 9.1476764e-41
3.536762 4.114769 18.4 9.1476764e-41
-7.3660045 3.1212137 4 9.1476764e-41
-9.0734816 3.844727 8.3000002 9.1476764e-41
-1.2666929 1.53476 19.799999 9.1476764e-41
3.9571128 8.4054298 6.3000002 9.1476764e-41
7.2401972 4.7517934 15 9.1476764e-41
4.95012 4.7123575 17.299999 9.1476764e-41
-9.0543919 1.099088 5.9000001 9.1476764e-41
-8.3417597 1.5248098 4.6999998 9.1476764e-41
4.1898241 8.8997402 8.1999998 9.1476764e-41
-4.3196807 5.9245553 3.1999998 9.1476764e-41
5.5498099 6.3276854 15.4 9.1476764e-41
0.29989499 9.9935007 9.8000002 9.1476764e-41
-6.5990858 4.5223961 4 9.1476764e-41
8.0151968 0.97294289 15.9 9.1476764e-41
8.1579905 4.3597231 6.1999998 9.1476764e-41
-7.6096854 2.6986461 4.0999999 9.1476764e-41
4.4074469 8.6766586 12.3 9.1476764e-41
4.1756692 8.6442928 7.1999998 9.1476764e-41
-8.0134115 2.5739539 15.4 9.1476764e-41
-0.1519767 7.5978222 16.5 9.1476764e-41
-6.2076111 6.2749953 14.7 9.1476764e-41
5.0910225 4.0399866 17.6 9.1476764e-41
-1.9857992 9.7962551 10.3 9.1476764e-41
-3.918581 7.9091544 5.3000002 9.1476764e-41
4.0676022 9.1084909 10.7 9.1476764e-41
4.5180087 8.470396 12.8 9.1476764e-41
-1.6923394 1.7452767 19.700001 9.1476764e-41
-4.1150026 8.9725561 8.3999996 9.1476764e-41
8.0622578 4.8414879 13.4 9.1476764e-41
-3.9837008 1.148966 19.1 9.1476764e-41
8.4130268 5.4019423 9.8000002 9.1476764e-41
-3.2539682 8.1468821 5.1999998 9.1476764e-41
4.2158394 1.7368674 18.9 9.1476764e-41
9.8532171 1.598159 10.6 9.1476764e-41
-0.099592514 9.9589195 10.9 9.1476764e-41
8.4784079 3.5925751 13.9 9.1476764e-41
-0.74913442 6.2127929 17.799999 9.1476764e-41
-7.1280441 5.2058611 5.3000002 9.1476764e-41
9.0377455 4.0446448 11.4 9.1476764e-41
1.1280646 4.4178591 18.9 9.1476764e-41
8.7281046 3.5958581 6.6999998 9.1476764e-41
-4.086935 5.9738564 3.0999999 9.1476764e-41
3.7764947 8.6889639 13.2 9.1476764e-41
0 9.8178406 8.1000004 9.1476764e-41
4.8899474 7.1476159 5 9.1476764e-41
3.2165682 2.9417152 19 9.1476764e-41
8.6490831 0.43972009 15 9.1476764e-41
1.5903118 9.8544865 9.3999996 9.1476764e-41
-5.7977486 0.8809672 18.1 9.1476764e-41
6.4394126 3.6937745 3.3000002 9.1476764e-41
-1.8004643 5.4330773 18.200001 9.1476764e-41
6.5378914 7.4542589 8.6999998 9.1476764e-41
-5.8057013 8.1322708 9.6000004 9.1476764e-41
8.4411764 5.3015604 9.1999998 9.1476764e-41
6.0494294 6.1150966 15.1 9.1476764e-41
1.0956985 7.2497892 3.1999998 9.1476764e-41
0.058642004 5.8640046 18.1 9.1476764e-41
1.3909587 9.8704224 10.8 9.1476764e-41
3.103353 0.34525391 19.5 9.1476764e-41
-7.6723433 1.6416903 16.200001 9.1476764e-41
8.5479708 4.9032845 8.3000002 9.1476764e-41
-8.0632839 2.4131818 15.4 9.1476764e-41
7.4162116 6.6475415 10.9 9.1476764e-41
9.4662924 0.38640463 13.2 9.1476764e-41
1.466669 7.6261969 16.299999 9.1476764e-41
-5.5466247 7.2962289 6 9.1476764e-41
4.037446 9.0409641 8.6000004 9.1476764e-41
-9.4429483 2.9292877 8.5 9.1476764e-41
-1.2881428 4.1642151 19 9.1476764e-41
3.5805407 9.2314529 11.4 9.1476764e-41
-0.88720649 9.8312187 11.6 9.1476764e-41
-8.165659 5.7168179 9.1999998 9.1476764e-41
8.0781212 5.186902 12.8 9.1476764e-41
-9.3032455 2.6832118 12.5 9.1476764e-41
-5.0345097 7.8545346 13.6 9.1476764e-41
3.098201 8.7584896 13.7 9.1476764e-41
-0.67145133 9.5764894 12.8 9.1476764e-41
-8.1838455 1.6657336 15.5 9.1476764e-41
1.5816694 9.8009348 8.8000002 9.1476764e-41
-2.3690705 7.3957758 3.6999998 9.1476764e-41
3.8392947 7.9479442 5.3000002 9.1476764e-41
1.1677924 9.6848469 12.2 9.1476764e-41
-1.5504416 8.5203362 15 9.1476764e-41
-4.9665647 8.6742859 9.6999998 9.1476764e-41
-9.3539963 2.3964031 12.6 9.1476764e-41
-5.8676915 7.5604358 7.0999999 9.1476764e-41
-8.4657183 2.0788488 14.9 9.1476764e-41
-8.2790804 4.859715 12.8 9.1476764e-41
1.8322703 0.77639204 19.799999 9.1476764e-41
4.8353682 4.1628375 17.700001 9.1476764e-41
-6.9264579 7.1431212 9 9.1476764e-41
0.61359525 1.2702388 19.9 9.1476764e-41
-9.426157 1.2399853 13.1 9.1476764e-41
-1.2675976 6.2532549 17.700001 9.1476764e-41
2.2336342 8.7476206 5.6999998 9.1476764e-41
-7.0938287 4.7578988 15.2 9.1476764e-41
-2.0756767 7.8026643 4.0999999 9.1476764e-41
-7.1848044 1.4623895 16.799999 9.1476764e-41
-3.9670985 3.7016401 18.4 9.1476764e-41
-5.1707988 3.9373651 17.6 9.1476764e-41
1.5910339 9.2686901 6.5999999 9.1476764e-41
4.3992753 7.1754003 15.4 9.1476764e-41
-1.3909587 9.8704224 10.8 9.1476764e-41
-9.3995085 2.6094513 7.8000002 9.1476764e-41
3.0200844 7.7864685 15.5 9.1476764e-41
-3.3420498 5.8370113 17.4 9.1476764e-41
0.048617754 2.4305637 19.700001 9.1476764e-41
1.4726293 9.7437859 8.3000002 9.1476764e-41
-8.7082262 4.1081381 12.7 9.1476764e-41
8.4647732 4.0972686 13.4 9.1476764e-41
-0.55422813 7.9046082 3.9000001 9.1476764e-41
-3.2297935 4.1615424 18.5 9.1476764e-41
0.73848236 8.1831932 15.7 9.1476764e-41
7.2960405 3.0915678 16.1 9.1476764e-41
1.3787137 6.8014083 17.200001 9.1476764e-41
9.4279633 2.9246392 11.6 9.1476764e-41
5.5125737 6.6791863 5 9.1476764e-41
9.776351 1.0876377 8.1999998 9.1476764e-41
-0.75027663 6.7931647 17.299999 9.1476764e-41
1.1300498 8.6436672 5.0999999 9.1476764e-41
-5.4581761 5.4081707 16.4 9.1476764e-41
-3.61782 8.5569487 6.3000002 9.1476764e-41
5.5212693 4.2042346 17.200001 9.1476764e-41
0.37151361 9.2828865 13.7 9.1476764e-41
8.1371794 5.457684 8 9.1476764e-41
-0.63916343 4.8889136 18.700001 9.1476764e-41
4.358645 0.047059432 19 9.1476764e-41
4.0910921 5.8534575 17 9.1476764e-41
-9.3100586 1.0357617 6.5 9.1476764e-41
-8.716382 3.7966671 6.9000001 9.1476764e-41
4.2091269 6.7136617 16.1 9.1476764e-41
7.9855928 3.1969228 15.1 9.1476764e-41
1.4943814 9.8877106 10 9.1476764e-41
-3.0553834 7.2266612 3.8000002 9.1476764e-41
-0.76709491 7.6453624 16.4 9.1476764e-41
-1.3847363 7.2001739 3.1999998 9.1476764e-41
9.8466101 1.6983113 10.4 9.1476764e-41
9.6935024 1.2751539 7.9000001 9.1476764e-41
-1.2245576 7.1337547 16.9 9.1476764e-41
2.3439939 7.317492 3.5999999 9.1476764e-41
6.0006657 5.7124434 15.6 9.1476764e-41
4.7775636 6.4167662 16 9.1476764e-41
-7.6314826 6.3087616 11.4 9.1476764e-41
-8.1770811 5.1356931 12.6 9.1476764e-41
-4.6934171 3.0136085 18.299999 9.1476764e-41
-5.1922908 5.0428286 16.9 9.1476764e-41
-6.6909142 5.3095832 15.2 9.1476764e-41
-0.18370315 3.671001 19.299999 9.1476764e-41
-8.2545757 5.5364227 8.8999996 9.1476764e-41
-6.3141904 3.5385022 3.0999999 9.1476764e-41
-7.1906261 5.9443164 6.4000001 9.1476764e-41
4.3589725 7.6131043 14.8 9.1476764e-41
-0.19462514 9.7299595 7.6999998 9.1476764e-41
-1.8366308 7.1928291 3.3000002 9.1476764e-41
7.2396317 4.8556905 14.9 9.1476764e-41
-1.3305693 8.2449732 15.5 9.1476764e-41
8.2181196 4.714076 6.8000002 9.1476764e-41
1.4322367 7.8707495 16 9.1476764e-41
-6.9511752 1.1274575 17.1 9.1476764e-41
-4.0476675 7.0693979 15.8 9.1476764e-41
-0.5495792 9.1486588 14 9.1476764e-41
5.6180906 1.6813836 18.1 9.1476764e-41
-4.2000527 1.1660006 19 9.1476764e-41
4.378047 7.4721284 5 9.1476764e-41
6.1537986 5.7420173 15.4 9.1476764e-41
-0.8435089 7.6373091 16.4 9.1476764e-41
9.7576418 1.0855561 11.9 9.1476764e-41
-8.4169292 5.2863317 8.8999996 9.1476764e-41
-8.3398657 4.5647163 6.9000001 9.1476764e-41
-5.0676727 6.9504461 15.1 9.1476764e-41
-1.2172049 5.4431987 18.299999 9.1476764e-41
-0.1887836 9.4379215 13.3 9.1476764e-41
-9.9898357 0.20778233 10.4 9.1476764e-41
5.7088037 1.3414744 18.1 9.1476764e-41
-9.0615463 2.5156274 6.5999999 9.1476764e-41
4.8389606 5.6297841 16.700001 9.1476764e-41
1.598088 3.5785632 19.200001 9.1476764e-41
7.6417603 6.4469757 10.2 9.1476764e-41
8.753912 3.7093151 13.1 9.1476764e-41
6.7256765 0.07261581 17.4 9.1476764e-41
-0.49162841 9.8243732 11.8 9.1476764e-41
-4.078064 3.8051803 18.299999 9.1476764e-41
-1.8725623 9.7367096 8.6999998 9.1476764e-41
-2.0197244 6.5292201 17.299999 9.1476764e-41
3.2584891 8.6569185 6.1999998 9.1476764e-41
0.37749168 9.4322586 13.3 9.1476764e-41
9.8291349 1.7966908 9.6000004 9.1476764e-41
-4.3727708 8.0043039 14.1 9.1476764e-41
6.9937792 6.657856 12.6 9.1476764e-41
-3.5831726 4.8125744 18 9.1476764e-41
-9.4429483 2.9292877 8.5 9.1476764e-41
1.0964099 9.9271288 10.5 9.1476764e-41
-5.1403317 8.5753708 9.8000002 9.1476764e-41
-6.4129596 4.7826719 16 9.1476764e-41
-8.5473032 4.7899489 8 9.1476764e-41
-7.3696856 3.298141 4.0999999 9.1476764e-41
-6.7219415 6.9322071 12.6 9.1476764e-41
4.078064 3.8051803 18.299999 9.1476764e-41
9.0744581 1.2861609 14 9.1476764e-41
9.7298021 0.20237377 12.3 9.1476764e-41
0.32857025 8.2098751 15.7 9.1476764e-41
1.0816473 7.1568174 3.0999999 9.1476764e-41
9.0407887 4.1550131 9 9.1476764e-41
4.8105264 6.1982932 3.8000002 9.1476764e-41
-6.8431411 6.6461582 7 9.1476764e-41
-5.1732411 7.8960481 6.6999998 9.1476764e-41
-9.5623035 0.3903237 7.0999999 9.1476764e-41
-8.6492434 2.5885479 14.3 9.1476764e-41
-9.4893713 3.1530659 9.8999996 9.1476764e-41
-2.6480401 9.5680656 8.8000002 9.1476764e-41
-1.9871783 4.7001185 18.6 9.1476764e-41
-2.989749 6.6948786 3.1999998 9.1476764e-41
5.1155887 8.5340939 11 9.1476764e-41
4.2648282 5.7281094 3 9.1476764e-41
3.788224 8.4828863 6.3000002 9.1476764e-41
9.0021915 3.8145189 7.9000001 9.1476764e-41
8.0778923 2.9559526 4.9000001 9.1476764e-41
-6.9464083 5.0732059 15.1 9.1476764e-41
1.3941866 9.2247629 6.4000001 9.1476764e-41
9.3839073 1.7153066 13 9.1476764e-41
-6.6665902 7.3011351 11.5 9.1476764e-41
1.6726822 9.744339 11.5 9.1476764e-41
9.8051777 0.498496 8.1000004 9.1476764e-41
3.6017592 6.5929761 3.4000001 9.1476764e-41
4.5003986 2.0140548 18.700001 9.1476764e-41
-7.7667956 6.1633501 8.6999998 9.1476764e-41
-5.5402508 6.0675879 4.3000002 9.1476764e-41
2.2452505 8.7931137 14.2 9.1476764e-41
-7.8084502 2.7691348 4.4000001 9.1476764e-41
8.8215523 2.6401165 13.9 9.1476764e-41
5.6223736 7.3958712 6.3000002 9.1476764e-41
-7.8079429 3.3084774 15.3 9.1476764e-41
3.5264764 8.829154 6.9000001 9.1476764e-41
0.22474629 1.3926574 19.9 9.1476764e-41
-0.18807255 9.4023733 13.4 9.1476764e-41
-9.2149401 3.5825799 11.5 9.1476764e-41
8.4487705 5.1892467 8.6999998 9.1476764e-41
9.3524036 1.7095479 6.9000001 9.1476764e-41
-6.7585435 7.2547975 8.6999998 9.1476764e-41
1.1605293 7.6787481 3.6999998 9.1476764e-41
-4.6776996 8.7697849 8.8999996 9.1476764e-41
5.8867326 8.0738077 10.4 9.1476764e-41
8.766057 4.6846809 11.1 9.1476764e-41
-9.7870655 1.8903301 9.1999998 9.1476764e-41
3.4251969 7.4684691 4.3000002 9.1476764e-41
2.7218764 5.4937592 17.9 9.1476764e-41
3.8266497 8.8043604 12.8 9.1476764e-41
7.1811137 4.5101662 4.6999998 9.1476764e-41
3.0200844 7.7864685 4.5 9.1476764e-41
3.2511079 3.7067914 18.700001 9.1476764e-41
5.5413957 6.5789771 15.1 9.1476764e-41
-0.30599269 5.0937572 18.6 9.1476764e-41
3.055896 1.5170718 19.4 9.1476764e-41
6.8126187 3.5536213 3.5999999 9.1476764e-41
-5.2140508 8.5043325 10.7 9.1476764e-41
2.0381153 9.5622225 12.1 9.1476764e-41
-4.05407 6.3249125 16.6 9.1476764e-41
-3.3561368 0.61347616 19.4 9.1476764e-41
9.4274445 2.4152198 12.3 9.1476764e-41
-2.6993344 9.04564 13.3 9.1476764e-41
-9.7273197 1.5777388 11.7 9.1476764e-41
-9.296916 1.9893084 13.1 9.1476764e-41
3.8783801 9.1732311 10.9 9.1476764e-41
6.4379821 5.214632 15.6 9.1476764e-41
2.0747888 9.2782135 6.9000001 9.1476764e-41
-0.6509158 3.0539005 19.5 9.1476764e-41
-6.9621024 1.0578905 17.1 9.1476764e-41
4.6629081 5.5359993 16.9 9.1476764e-41
-7.4289889 4.6658463 5.1999998 9.1476764e-41
4.9021959 5.0555391 17.1 9.1476764e-41
9.6818943 0.10453351 12.5 9.1476764e-41
-6.0539207 3.3926458 17.200001 9.1476764e-41
-7.5324368 6.4847822 8.8999996 9.1476764e-41
-0.67522669 7.4822502 16.6 9.1476764e-41
-0.58368754 2.7384858 19.6 9.1476764e-41
-1.7379706 9.5508881 12.4 9.1476764e-41
9.9005499 1.4032464 9.8999996 9.1476764e-41
4.8678746 5.2253036 17 9.1476764e-41
-5.8334475 4.4419465 16.799999 9.1476764e-41
1.7225547 8.9567184 14.1 9.1476764e-41
7.9137936 0.40233788 3.9000001 9.1476764e-41
-1.2043422 9.2119246 6.3000002 9.1476764e-41
-2.6031146 3.4962544 19 9.1476764e-41
0 7.2380939 3.0999999 9.1476764e-41
0 9.6000004 12.8 9.1476764e-41
-0.17757194 8.8774128 14.6 9.1476764e-41
0.68924767 9.830307 8.3000002 9.1476764e-41
-3.2286468 8.5776358 14 9.1476764e-41
-4.6652541 5.8885827 3.4000001 9.1476764e-41
4.3271303 6.9018798 15.8 9.1476764e-41
8.269619 0.50338292 15.6 9.1476764e-41
7.7534099 3.1039715 4.5 9.1476764e-41
-0.84026295 8.3746014 4.5999999 9.1476764e-41
-9.9387369 0.10730658 11.1 9.1476764e-41
-7.7330856 4.7496724 14.2 9.1476764e-41
1.8587871 6.4641247 17.4 9.1476764e-41
-8.6282778 2.4885397 14.4 9.1476764e-41
5.9983034 7.4175711 13 9.1476764e-41
-9.6182222 2.6701694 9.3999996 9.1476764e-41
1.632356 8.0526648 15.7 9.1476764e-41
0.091649987 9.1646929 6 9.1476764e-41
9.0151339 4.252923 9.1999998 9.1476764e-41
8.5618076 4.5755277 7.5999999 9.1476764e-41
4.0934391 1.4979169 19 9.1476764e-41
-6.3112335 4.2330046 3.5 9.1476764e-41
-0.66363084 1.8760579 19.799999 9.1476764e-41
-7.9566278 4.4589319 14.1 9.1476764e-41
-3.9732122 5.9341035 17 9.1476764e-41
-3.1427102 8.6094933 14 9.1476764e-41
4.2457428 9.0185184 9.1999998 9.1476764e-41
0.079998665 7.9995999 4 9.1476764e-41
-7.0970783 5.8669825 13.9 9.1476764e-41
-2.6786566 8.976347 13.5 9.1476764e-41
-9.2514992 2.6682873 7.3000002 9.1476764e-41
-6.6264973 3.8896697 16.4 9.1476764e-41
8.5903864 1.4816419 5.0999999 9.1476764e-41
7.6265383 3.9781806 15.1 9.1476764e-41
-6.140635 6.8616767 13.9 9.1476764e-41
-3.7098258 6.6322842 16.5 9.1476764e-41
8.9992037 4.3559527 10.2 9.1476764e-41
-7.4094377 6.37889 7.9000001 9.1476764e-41
-8.6664915 1.673896 14.7 9.1476764e-41
-1.3774538 9.7745905 8.3999996 9.1476764e-41
6.7521162 4.1471596 16.1 9.1476764e-41
4.3903031 8.4329853 13.1 9.1476764e-41
-7.0190001 6.5493236 12.8 9.1476764e-41
9.6696987 2.4772828 9.3999996 9.1476764e-41
-1.0807964 8.9633627 14.3 9.1476764e-41
-4.9198027 8.3967581 12.3 9.1476764e-41
-1.3625765 4.7385011 18.700001 9.1476764e-41
1.3900778 8.0980053 4.3000002 9.1476764e-41
4.7409611 0.28858873 18.799999 9.1476764e-41
0.29389468 9.7935505 12 9.1476764e-41
9.1258135 4.0840573 9.8000002 9.1476764e-41
-5.1687703 7.7197027 6.3000002 9.1476764e-41
4.2585425 9.0457067 9.8000002 9.1476764e-41
2.9393909 5.3805189 17.9 9.1476764e-41
-6.9364696 5.8519564 14.2 9.1476764e-41
-8.3033123 5.5691113 9.8000002 9.1476764e-41
-6.8193917 6.7569151 7.1999998 9.1476764e-41
8.5281906 2.2759562 5.3000002 9.1476764e-41
-2.3218977 0.72027361 19.700001 9.1476764e-41
2.6926503 8.4059286 14.7 9.1476764e-41
-9.8210678 0.99329346 11.6 9.1476764e-41
-9.8868446 0.90016401 11.2 9.1476764e-41
-3.8792286 8.925334 7.6999998 9.1476764e-41
-6.9467249 4.8634357 15.3 9.1476764e-41
-4.0354252 8.5717764 13.2 9.1476764e-41
7.4311275 1.5900761 3.5 9.1476764e-41
9.9671698 0.40684995 10.7 9.1476764e-41
0.42990804 8.5909948 4.9000001 9.1476764e-41
-5.5726461 7.3304582 6.0999999 9.1476764e-41
-4.6727872 8.1611929 13.4 9.1476764e-41
9.1256084 3.2362428 12.5 9.1476764e-41
2.4429085 7.371716 16.299999 9.1476764e-41
2.7535694 6.8940454 3.3000002 9.1476764e-41
-7.1296592 3.6287687 16 9.1476764e-41
-9.9826059 0.5075165 9.6999998 9.1476764e-41
-9.9588089 0.90671605 10 9.1476764e-41
8.486083 1.9940892 14.9 9.1476764e-41
-7.5141149 6.4690084 11.3 9.1476764e-41
-6.3619566 3.9956868 3.4000001 9.1476764e-41
0.5937345 9.8836975 11.4 9.1476764e-41
-0.39662462 6.6024761 17.5 9.1476764e-41
1.1633556 4.9685607 18.6 9.1476764e-41
-1.2245576 7.1337547 16.9 9.1476764e-41
-2.0303757 8.2968416 15.2 9.1476764e-41
-7.4033451 1.2769048 16.6 9.1476764e-41
-0.062445816 3.1218746 19.5 9.1476764e-41
5.6550388 6.3190613 4.6999998 9.1476764e-41
-2.6673145 9.6377087 10 9.1476764e-41
-7.0699391 5.9645581 6.1999998 9.1476764e-41
-7.7073889 6.3715115 10 9.1476764e-41
8.165659 5.7168179 10.8 9.1476764e-41
-0.3432121 5.713336 18.200001 9.1476764e-41
8.9145403 1.0821117 14.4 9.1476764e-41
-9.6382599 1.7618003 12 9.1476764e-41
-9.0182858 3.92817 11.8 9.1476764e-41
-0.74454391 3.3295138 19.4 9.1476764e-41
9.39643 0.38355288 13.4 9.1476764e-41
-8.4937687 5.2168851 10.8 9.1476764e-41
-1.8376645 9.0654831 6.1999998 9.1476764e-41
3.5805407 9.2314529 8.6000004 9.1476764e-41
-4.8895688 5.4637089 3.1999998 9.1476764e-41
5.9312701 4.6108608 3.4000001 9.1476764e-41
-9.4994545 0.38775828 6.9000001 9.1476764e-41
-8.9498186 4.4430561 9.6000004 9.1476764e-41
9.6116667 1.3623017 12.4 9.1476764e-41
1.1214037 9.3001318 6.5 9.1476764e-41
9.0499191 3.9419489 11.6 9.1476764e-41
8.97293 0.99825555 14.3 9.1476764e-41
-4.5203137 1.9689507 18.700001 9.1476764e-41
-7.9995337 0.086369395 16 9.1476764e-41
-9.510931 2.8464339 8.8000002 9.1476764e-41
5.1287484 8.5560474 9.3000002 9.1476764e-41
-4.5687084 8.5654478 12.4 9.1476764e-41
-4.7355819 8.0823431 13.5 9.1476764e-41
-7.6883764 1.5648861 16.200001 9.1476764e-41
5.9238291 7.4771819 7 9.1476764e-41
-5.7307391 5.2410522 16.299999 9.1476764e-41
-7.1609259 6.8169746 11.5 9.1476764e-41
-5.8414526 8.0117054 8.6999998 9.1476764e-41
-3.6019716 8.7627506 13.2 9.1476764e-41
6.2124863 6.0336571 15 9.1476764e-41
5.2208729 5.2775459 3.3000002 9.1476764e-41
-9.2344666 3.2748473 8 9.1476764e-41
7.814054 6.2008519 9.3000002 9.1476764e-41
-1.502202 8.751193 5.4000001 9.1476764e-41
-6.8806095 4.6148906 4.4000001 9.1476764e-41
-7.4383774 6.2753916 12.3 9.1476764e-41
-1.0297338 8.5398865 15.1 9.1476764e-41
5.1145811 8.1578836 7.3000002 9.1476764e-41
-6.6542325 6.5932689 6.5 9.1476764e-41
9.8131857 0.30230603 8.1000004 9.1476764e-41
-7.2050333 6.7229085 8.3000002 9.1476764e-41
3.4966333 5.3369989 17.700001 9.1476764e-41
0.21711023 7.2348366 16.9 9.1476764e-41
8.874979 0.27340353 14.6 9.1476764e-41
-3.5608366 8.9151812 7.1999998 9.1476764e-41
0.5495792 9.1486588 14 9.1476764e-41
-7.597043 4.878005 5.6999998 9.1476764e-41
7.5965519 1.1542951 3.5999999 9.1476764e-41
7.7486129 1.65801 3.9000001 9.1476764e-41
-5.1965251 4.7524867 17.1 9.1476764e-41
5.7280855 4.0962219 17.1 9.1476764e-41
-1.8672346 2.0864878 19.6 9.1476764e-41
5.4826264 8.1884556 8.3000002 9.1476764e-41
7.3930321 0.67311072 16.700001 9.1476764e-41
0.38614044 9.6483622 7.4000001 9.1476764e-41
-6.5879679 6.6594806 13.5 9.1476764e-41
9.5321369 2.8527806 9 9.1476764e-41
-1.5094086 9.3531647 13.2 9.1476764e-41
-6.5931616 6.9368739 12.9 9.1476764e-41
-5.8619161 8.039772 9 9.1476764e-41
5.2712436 7.0798302 14.7 9.1476764e-41
-0.69663429 8.6893444 14.9 9.1476764e-41
7.3260202 0.29904085 16.799999 9.1476764e-41
-6.2267733 5.3607178 4.3000002 9.1476764e-41
-0.27620301 9.2040052 13.9 9.1476764e-41
-6.9686847 5.4173274 5.3000002 9.1476764e-41
-9.1651487 0.0072979741 6 9.1476764e-41
-8.3433027 5.357173 8.6999998 9.1476764e-41
-5.4867229 1.002931 18.299999 9.1476764e-41
-0.29326642 9.7726145 12.1 9.1476764e-41
2.2658336 0.88090968 19.700001 9.1476764e-41
6.7028098 6.912477 12.7 9.1476764e-41
1.9072256 9.408639 12.8 9.1476764e-41
3.5484338 6.1974688 17 9.1476764e-41
1.9226835 0.51311511 19.799999 9.1476764e-41
7.5600333 1.7764829 16.299999 9.1476764e-41
6.5746775 6.3854222 6 9.1476764e-41
-4.2620654 3.8203139 18.200001 9.1476764e-41
8.6955948 4.8730521 9.1999998 9.1476764e-41
1.8063835 7.3815293 3.5 9.1476764e-41
0.54317272 7.7469325 16.299999 9.1476764e-41
-8.9829912 2.2058709 6.1999998 9.1476764e-41
9.9853325 0.20768866 9.5 9.1476764e-41
-7.857275 4.7183928 6 9.1476764e-41
-3.7762816 5.2895842 17.6 9.1476764e-41
2.6614685 6.2949648 17.299999 9.1476764e-41
-5.8414526 8.0117054 8.6999998 9.1476764e-41
-9.2243547 2.7606673 7.3000002 9.1476764e-41
1.9505039 9.622138 8.1000004 9.1476764e-41
-7.5557613 5.8737102 12.9 9.1476764e-41
-7.6914682 3.079174 4.4000001 9.1476764e-41
0.68529713 9.7739639 8 9.1476764e-41
2.6084578 8.4324341 14.7 9.1476764e-41
-1.8509548 8.6841211 5.4000001 9.1476764e-41
0 9.4042549 13.4 9.1476764e-41
9.7206888 1.3777539 8.1000004 9.1476764e-41
1.0888557 6.7471766 17.299999 9.1476764e-41
-1.0948578 7.7692528 3.8000002 9.1476764e-41
-3.0504339 9.5228596 9.8999996 9.1476764e-41
1.5772827 8.2013521 15.5 9.1476764e-41
9.1410484 1.109607 6.0999999 9.1476764e-41
0.71827322 5.956852 18 9.1476764e-41
6.5621066 7.1867065 12.3 9.1476764e-41
-6.5730805 6.2573643 14.2 9.1476764e-41
7.6507564 3.7981486 15.2 9.1476764e-41
9.5724907 2.8648577 10.4 9.1476764e-41
-7.9698782 1.2926877 15.9 9.1476764e-41
-4.7267556 8.4503126 12.5 9.1476764e-41
9.5212126 2.5409684 11.7 9.1476764e-41
-7.6773558 0.313382 3.5999999 9.1476764e-41
0.55954278 7.9804082 16 9.1476764e-41
-3.9571128 8.4054298 13.7 9.1476764e-41
4.4085865 8.2652502 6.5 9.1476764e-41
5.3221207 7.61479 6.3000002 9.1476764e-41
2.1272666 4.6383972 18.6 9.1476764e-41
-5.5641832 7.1693697 5.8000002 9.1476764e-41
-7.2274003 4.0502696 15.6 9.1476764e-41
6.8218222 2.4192438 3.0999999 9.1476764e-41
5.8022003 4.3271785 16.9 9.1476764e-41
8.5963039 3.0485339 14.1 9.1476764e-41
-6.4240737 1.9928056 17.4 9.1476764e-41
0.89874059 9.9590292 10.1 9.1476764e-41
-6.7022991 3.5817852 16.5 9.1476764e-41
6.571384 6.7769399 6.6999998 9.1476764e-41
5.8437319 7.6870537 12.6 9.1476764e-41
7.2544756 2.9887435 3.8000002 9.1476764e-41
0.099873252 9.9869928 10.5 9.1476764e-41
-0.62701213 7.8209243 16.200001 9.1476764e-41
-5.7887373 4.5000582 3.1999998 9.1476764e-41
0.91928095 9.1621466 6.0999999 9.1476764e-41
-7.7039199 6.3686438 9.6999998 9.1476764e-41
-6.7720761 2.5551872 16.9 9.1476764e-41
-9.5604563 0.87044746 12.8 9.1476764e-41
3.590755 3.8544102 18.5 9.1476764e-41
3.8404396 0.78168005 19.200001 9.1476764e-41
8.4251728 3.3729024 14.2 9.1476764e-41
-8.7982712 3.4205878 13.3 9.1476764e-41
-8.1652946 3.8520079 14.3 9.1476764e-41
-4.6002073 7.3374443 15 9.1476764e-41
-3.9409945 9.0674448 8.5 9.1476764e-41
-1.2701499 9.7152824 12 9.1476764e-41
7.857275 4.7183928 14 9.1476764e-41
-6.5358472 5.4030266 4.6999998 9.1476764e-41
-5.1985731 2.0210986 18.299999 9.1476764e-41
-3.6096394 9.3064766 9.3999996 9.1476764e-41
3.2977629 6.3344107 3 9.1476764e-41
1.5717578 9.156395 6.3000002 9.1476764e-41
-5.9295912 7.7999964 12 9.1476764e-41
5.1462641 7.686089 13.8 9.1476764e-41
8.3334637 5.4693122 9.1999998 9.1476764e-41
-8.7659559 4.5725279 8.5 9.1476764e-41
-3.7896984 9.2194462 10.8 9.1476764e-41
-5.5702138 2.229959 18 9.1476764e-41
-7.2675414 3.9777935 4.4000001 9.1476764e-41
7.465951 4.8999572 14.5 9.1476764e-41
6.5776777 7.2037601 12.2 9.1476764e-41
-8.041256 5.3933473 12.5 9.1476764e-41
-8.7643805 3.3069079 13.5 9.1476764e-41
9.39468 3.3316643 9.1999998 9.1476764e-41
8.353569 5.4825072 9.6000004 9.1476764e-41
6.2180977 7.2343116 13 9.1476764e-41
8.0778923 2.9559526 4.9000001 9.1476764e-41
-3.7744112 9.1822557 11.2 9.1476764e-41
-1.9007667 4.144526 18.9 9.1476764e-41
-3.2474413 7.9002614 4.8000002 9.1476764e-41
7.2849231 3.7999864 15.7 9.1476764e-41
-7.588058 6.4016695 8.8000002 9.1476764e-41
-5.5481353 7.4517241 13.7 9.1476764e-41
-9.7610283 2.0886168 9.3999996 9.1476764e-41
0.51443207 5.7004704 18.200001 9.1476764e-41
8.2772694 5.3147736 8.1999998 9.1476764e-41
-0.095072068 9.5068903 6.9000001 9.1476764e-41
9.8464432 0.69825894 8.3999996 9.1476764e-41
