# .PCD v0.7 - Point Cloud Data file format
VERSION 0.7
FIELDS x y z rgb
SIZE 4 4 4 4
TYPE F F F F
COUNT 1 1 1 1
WIDTH 227
HEIGHT 1
VIEWPOINT 0 0 0 1 0 0 0
POINTS 227
DATA ascii
0.083928823 -0.29205656 -0.88266873 2.3418052e-38
0.10430551 -0.26394606 -0.87341952 2.3418052e-38
0.048689723 -0.27189541 -0.72350383 2.3418052e-38
0.097641826 -0.24276781 -0.7179141 2.3418052e-38
0.12268007 -0.23029804 -0.71611524 2.3418052e-38
0.065835834 -0.23348284 -0.71025801 2.3418052e-38
-0.10060799 -0.25158119 -0.55651641 2.3418052e-38
0.19613361 -0.10405588 -0.53565788 2.3418052e-38
-0.09347856 -0.17552376 -0.52863598 2.3418052e-38
-0.067657351 -0.16752434 -0.52837825 2.3418052e-38
0.1310643 -0.080203056 -0.51869631 2.3418052e-38
0.15850782 -0.077415466 -0.5210681 2.3418052e-38
-0.031279802 -0.10026598 -0.50713825 2.3418052e-38
-0.06190896 -0.090745449 -0.5001905 2.3418052e-38
-0.0094844103 -0.080002308 -0.50200629 2.3418052e-38
0.018856406 -0.081392765 -0.50576484 2.3418052e-38
0.06584692 -0.052923679 -0.5006665 2.3418052e-38
0.0367378 -0.049202442 -0.49584019 2.3418052e-38
0.089083433 -0.03822279 -0.4979949 2.3418052e-38
-0.22647524 -0.2006917 -0.38795114 2.3418052e-38
0.27652383 -0.0083146095 -0.37506378 2.3418052e-38
-0.21384418 -0.14166021 -0.36826706 2.3418052e-38
-0.20054507 -0.087386131 -0.35037148 2.3418052e-38
-0.18495333 -0.043611526 -0.3364346 2.3418052e-38
0.19735181 0.054457188 -0.34377992 2.3418052e-38
0.22337639 0.05993557 -0.34509885 2.3418052e-38
-0.16201675 -0.02808094 -0.33317053 2.3418052e-38
-0.14348376 0.002808094 -0.32414067 2.3418052e-38
-0.12057126 0.017445564 -0.32128716 2.3418052e-38
-0.074549317 0.045205116 -0.3162787 2.3418052e-38
-0.024378896 0.058576584 -0.31691909 2.3418052e-38
0.1312331 0.084775925 -0.3254199 2.3418052e-38
0.16287482 0.073271275 -0.33314884 2.3418052e-38
0.10153651 0.091216087 -0.31971419 2.3418052e-38
-0.10152459 0.045042038 -0.31356084 2.3418052e-38
-0.051387191 0.058218479 -0.3141669 2.3418052e-38
-0.003690958 0.079288483 -0.31196284 2.3418052e-38
0.016571879 0.10086155 -0.3067106 2.3418052e-38
0.046986461 0.090828419 -0.31359136 2.3418052e-38
0.070915937 0.10095882 -0.31281161 2.3418052e-38
0.4462266 -0.072721481 -0.28227544 2.3418052e-38
-0.33158505 -0.22501135 -0.25309587 2.3418052e-38
-0.31626034 -0.17247057 -0.23698151 2.3418052e-38
-0.3044889 -0.10732841 -0.21649516 2.3418052e-38
0.36941361 0.048330307 -0.23470771 2.3418052e-38
0.33072841 0.074521065 -0.22172809 2.3418052e-38
-0.28524363 -0.075123787 -0.20746565 2.3418052e-38
0.26097667 0.10993719 -0.20218289 2.3418052e-38
0.28926277 0.10917711 -0.20578873 2.3418052e-38
-0.27483308 -0.0090489388 -0.18665743 2.3418052e-38
-0.24880517 -0.0061087608 -0.18786883 2.3418052e-38
-0.22069454 -0.010921955 -0.1918385 2.3418052e-38
0.16771305 0.13783884 -0.18253827 2.3418052e-38
0.19602311 0.13562775 -0.1864686 2.3418052e-38
0.21899152 0.14831543 -0.18509746 2.3418052e-38
-0.21191478 0.056569099 -0.17056739 2.3418052e-38
-0.18423033 0.0527668 -0.17426145 2.3418052e-38
-0.16487789 0.079105854 -0.16743541 2.3418052e-38
-0.14624584 0.10719585 -0.16001964 2.3418052e-38
-0.11552882 0.093043804 -0.1674937 2.3418052e-38
-0.093481064 0.10885334 -0.16447496 2.3418052e-38
-0.068307519 0.11403227 -0.16524541 2.3418052e-38
-0.048261881 0.13589478 -0.160164 2.3418052e-38
-0.02255857 0.13925362 -0.16166532 2.3418052e-38
0.0051352978 0.13655472 -0.16536605 2.3418052e-38
0.051169276 0.16043472 -0.1625191 2.3418052e-38
0.076824427 0.16436243 -0.1640135 2.3418052e-38
0.13170087 0.16245031 -0.17065084 2.3418052e-38
0.02080965 0.17107534 -0.15589762 2.3418052e-38
0.10225987 0.16907501 -0.16527832 2.3418052e-38
0.49411345 -0.044945717 -0.14521456 2.3418052e-38
-0.38153958 -0.2490201 -0.12459946 2.3418052e-38
0.43404436 0.030765533 -0.11626208 2.3418052e-38
-0.36601198 -0.19479942 -0.10912728 2.3418052e-38
0.38755441 0.074934959 -0.098069787 2.3418052e-38
-0.35593283 -0.11921835 -0.086821198 2.3418052e-38
0.34352934 0.11448002 -0.081546307 2.3418052e-38
-0.34039521 -0.070061684 -0.07297802 2.3418052e-38
-0.31932688 -0.04581356 -0.067141294 2.3418052e-38
0.28269935 0.12648296 -0.071224332 2.3418052e-38
0.31018603 0.127841 -0.073891759 2.3418052e-38
-0.3090483 0.021343231 -0.047537565 2.3418052e-38
-0.28020263 0.012230873 -0.052477241 2.3418052e-38
-0.26070106 0.040014267 -0.045579076 2.3418052e-38
-0.23949504 0.060422897 -0.041084886 2.3418052e-38
-0.21509695 0.068392754 -0.040640831 2.3418052e-38
-0.19330704 0.085801601 -0.037182212 2.3418052e-38
-0.17012691 0.09782505 -0.035501242 2.3418052e-38
-0.11880624 0.10427713 -0.037970781 2.3418052e-38
0.15704226 0.16785812 -0.045577645 2.3418052e-38
0.18945098 0.15381432 -0.053117156 2.3418052e-38
0.21324027 0.16397285 -0.052679777 2.3418052e-38
0.1022743 0.16903305 -0.039590359 2.3418052e-38
0.12435973 0.1834507 -0.037596107 2.3418052e-38
0.23809409 0.17123938 -0.053246617 2.3418052e-38
-0.14859116 0.11539412 -0.032056808 2.3418052e-38
-0.097559929 0.12256622 -0.034368873 2.3418052e-38
-0.074772239 0.13535643 -0.032591105 2.3418052e-38
-0.054384708 0.1557169 -0.028376341 2.3418052e-38
-0.029201865 0.16036701 -0.029330134 2.3418052e-38
-0.0099006891 0.18348169 -0.024277091 2.3418052e-38
0.017089486 0.18247938 -0.027166247 2.3418052e-38
0.047764778 0.17068863 -0.033655167 2.3418052e-38
0.069814444 0.185112 -0.031572104 2.3418052e-38
-0.39675474 -0.30719423 -0.0091845989 2.3418052e-38
0.48712492 -0.027882099 -0.0074546337 2.3418052e-38
-0.38121378 -0.25050688 0.0057611465 2.3418052e-38
0.42863739 0.044167519 0.018001556 2.3418052e-38
-0.37037241 -0.17538738 0.026117802 2.3418052e-38
-0.35602427 -0.11882067 0.041023016 2.3418052e-38
0.38374937 0.084510803 0.033526421 2.3418052e-38
0.34952652 0.099153519 0.041032791 2.3418052e-38
-0.34060657 -0.069164753 0.05388844 2.3418052e-38
-0.31531525 -0.062445164 0.054080725 2.3418052e-38
-0.29689062 -0.027925014 0.062445402 2.3418052e-38
0.25398576 0.12866592 0.058721066 2.3418052e-38
0.27826822 0.1381669 0.058818817 2.3418052e-38
0.30584371 0.139112 0.056248546 2.3418052e-38
-0.27488863 -0.00882864 0.066230893 2.3418052e-38
-0.25493646 0.017663002 0.072177649 2.3418052e-38
-0.23324096 0.036689758 0.075887799 2.3418052e-38
-0.19085491 0.076877117 0.083857298 2.3418052e-38
-0.14243102 0.093860149 0.084797502 2.3418052e-38
0.081656218 0.15006113 0.081056237 2.3418052e-38
0.10689294 0.1555953 0.080224156 2.3418052e-38
0.13594794 0.1503005 0.076060772 2.3418052e-38
0.19001114 0.15226412 0.071398735 2.3418052e-38
0.21599948 0.15646076 0.069978356 2.3418052e-38
0.15126038 0.18412447 0.083748698 2.3418052e-38
-0.217664 0.077931404 0.086166501 2.3418052e-38
-0.17283118 0.10746908 0.090928078 2.3418052e-38
-0.12049174 0.11005449 0.087512851 2.3418052e-38
-0.071238995 0.12370157 0.08723712 2.3418052e-38
-0.044606209 0.12406015 0.085100532 2.3418052e-38
-0.10736609 0.15553474 0.098959684 2.3418052e-38
-0.025564909 0.148808 0.090250492 2.3418052e-38
-0.0023932457 0.16005087 0.091312528 2.3418052e-38
0.022696733 0.16529036 0.090528727 2.3418052e-38
0.047657967 0.17101002 0.089849114 2.3418052e-38
-0.36844957 -0.30875635 0.11925375 2.3418052e-38
0.5125792 -0.090034008 0.1052202 2.3418052e-38
-0.35475361 -0.24491882 0.13478923 2.3418052e-38
0.45668972 -0.025365353 0.12640917 2.3418052e-38
-0.33995688 -0.18863535 0.14829528 2.3418052e-38
-0.29800475 -0.13421059 0.15964186 2.3418052e-38
0.37447453 0.035396576 0.14913535 2.3418052e-38
0.396312 0.052895069 0.15129936 2.3418052e-38
0.32776189 0.082221031 0.16498542 2.3418052e-38
-0.33053839 -0.11188602 0.1673007 2.3418052e-38
-0.28707588 -0.067698479 0.17587638 2.3418052e-38
-0.23404193 -0.063349247 0.17358387 2.3418052e-38
-0.26519322 -0.047252178 0.17968202 2.3418052e-38
-0.16765773 -0.0075502396 0.18322551 2.3418052e-38
0.15846598 0.085883617 0.18116534 2.3418052e-38
0.29816711 0.085698605 0.16860151 2.3418052e-38
0.20634747 0.10705853 0.18218994 2.3418052e-38
0.2350719 0.10453701 0.17899621 2.3418052e-38
0.25807142 0.1177206 0.18014169 2.3418052e-38
-0.22254467 -0.0039010048 0.18788135 2.3418052e-38
-0.19714499 0.0016889572 0.18758428 2.3418052e-38
-0.098444223 0.03448391 0.18887436 2.3418052e-38
-0.16012216 0.06214571 0.20027542 2.3418052e-38
-0.1327635 0.060065746 0.19780016 2.3418052e-38
0.019559383 0.091537476 0.19411612 2.3418052e-38
-0.04057765 0.1110177 0.20370412 2.3418052e-38
-0.013899207 0.11173201 0.20180428 2.3418052e-38
0.035687208 0.1254673 0.2012676 2.3418052e-38
0.060989618 0.13085651 0.20053709 2.3418052e-38
0.087616086 0.13242006 0.19871187 2.3418052e-38
0.16822004 0.13641214 0.19278944 2.3418052e-38
0.10886168 0.14986706 0.20124066 2.3418052e-38
-0.3080169 -0.45297861 0.21179092 2.3418052e-38
-0.092231035 0.10465097 0.20603168 2.3418052e-38
-0.069333911 0.11741734 0.20750833 2.3418052e-38
-0.30957544 -0.32064533 0.24245691 2.3418052e-38
0.46246409 -0.113585 0.2348243 2.3418052e-38
-0.29980195 -0.24230719 0.26001477 2.3418052e-38
0.373124 -0.03552103 0.25977075 2.3418052e-38
0.40672851 -0.047030926 0.25434482 2.3418052e-38
-0.27859437 -0.21468067 0.26521838 2.3418052e-38
-0.26407659 -0.16090202 0.27678585 2.3418052e-38
-0.24109423 -0.14275646 0.27963972 2.3418052e-38
0.30313075 -0.0029931068 0.2728622 2.3418052e-38
0.32858539 0.0054945946 0.27262044 2.3418052e-38
0.23965287 0.014895439 0.28202963 2.3418052e-38
0.26590717 0.020588875 0.28116739 2.3418052e-38
-0.22366822 -0.10357046 0.28761816 2.3418052e-38
-0.19775558 -0.097971916 0.28735268 2.3418052e-38
-0.17946315 -0.064011574 0.29401493 2.3418052e-38
-0.15396857 -0.05737257 0.2939477 2.3418052e-38
-0.13571763 -0.024887562 0.30020964 2.3418052e-38
-0.083243847 -0.017617702 0.29844558 2.3418052e-38
-0.11371386 -0.0065259933 0.30297565 2.3418052e-38
-0.061856747 0.002532959 0.30159438 2.3418052e-38
-0.034076691 0.0011181831 0.29937959 2.3418052e-38
-0.010865688 0.014829159 0.30087709 2.3418052e-38
0.20762658 0.025551796 0.28696835 2.3418052e-38
0.034714222 0.044239998 0.30428421 2.3418052e-38
0.1464045 0.040633678 0.29513109 2.3418052e-38
0.17568982 0.036611557 0.29195714 2.3418052e-38
0.085490704 0.057060719 0.30344093 2.3418052e-38
0.11350119 0.055801392 0.30104947 2.3418052e-38
0.0064002275 0.047216415 0.30698752 2.3418052e-38
0.054883122 0.06662035 0.30786097 2.3418052e-38
-0.2068944 -0.39262915 0.35070467 2.3418052e-38
-0.19446039 -0.3275671 0.36348307 2.3418052e-38
0.36149395 -0.15934801 0.36244488 2.3418052e-38
-0.18234599 -0.26378584 0.37598312 2.3418052e-38
-0.16546345 -0.22051573 0.38397789 2.3418052e-38
0.33065677 -0.15568972 0.36545014 2.3418052e-38
0.28702116 -0.11618233 0.37651587 2.3418052e-38
0.22307658 -0.098946571 0.38452041 2.3418052e-38
-0.1476655 -0.18216133 0.39088237 2.3418052e-38
-0.12103903 -0.17722178 0.39041042 2.3418052e-38
-0.096141815 -0.16602612 0.39128804 2.3418052e-38
-0.074248195 -0.144485 0.39442527 2.3418052e-38
-0.02658844 -0.11603832 0.39739275 2.3418052e-38
0.0010461807 -0.11473846 0.39596796 2.3418052e-38
-0.056553364 -0.10910225 0.40060687 2.3418052e-38
0.02078855 -0.087647915 0.40024626 2.3418052e-38
0.045880914 -0.078260899 0.4005636 2.3418052e-38
0.072914004 -0.074979782 0.3994894 2.3418052e-38
0.10562444 -0.08893013 0.39452899 2.3418052e-38
0.16018879 -0.082391262 0.39219332 2.3418052e-38
0.24220681 -0.071731091 0.38862443 2.3418052e-38
0.12700295 -0.067970753 0.39734018 2.3418052e-38
0.17739761 -0.049542427 0.3976227 2.3418052e-38
