# .PCD v0.7 - Point Cloud Data file format
VERSION 0.7
FIELDS x y z rgb
SIZE 4 4 4 4
TYPE F F F F
COUNT 1 1 1 1
WIDTH 94
HEIGHT 1
VIEWPOINT 0 0 0 1 0 0 0
POINTS 94
DATA ascii
-0.08463347 0.12040854 -0.55708706 2.3418052e-38
0.065130711 0.0078406334 -0.53368723 2.3418052e-38
0.092018008 -0.0037713051 -0.5326761 2.3418052e-38
0.12658858 0.0078482628 -0.5406276 2.3418052e-38
0.0061585903 0.014547825 -0.52957332 2.3418052e-38
-0.072019815 0.058313847 -0.53664672 2.3418052e-38
0.021732211 -0.032923698 -0.51476395 2.3418052e-38
-0.026278138 0.0078668594 -0.52379286 2.3418052e-38
-0.050881386 0.026941776 -0.52786696 2.3418052e-38
-0.18355381 0.093374729 -0.39223242 2.3418052e-38
0.16635275 -0.056512833 -0.37839425 2.3418052e-38
0.20031905 -0.047258377 -0.38510704 2.3418052e-38
-0.16570413 0.048033714 -0.37903285 2.3418052e-38
0.030429721 -0.10045958 -0.34983099 2.3418052e-38
0.097507596 -0.079741478 -0.36351418 2.3418052e-38
0.12581229 -0.085875034 -0.36458623 2.3418052e-38
-0.075802922 -0.056843758 -0.35331798 2.3418052e-38
-0.10340178 -0.049252033 -0.35314345 2.3418052e-38
-0.15426707 -0.018662453 -0.35835338 2.3418052e-38
-0.12311018 -0.014093876 -0.36270714 2.3418052e-38
-0.0064514875 -0.12249708 -0.33896339 2.3418052e-38
0.052289724 -0.12556076 -0.34403348 2.3418052e-38
-0.054093003 -0.083882809 -0.34667814 2.3418052e-38
-0.025913596 -0.089282036 -0.34771979 2.3418052e-38
0.1620568 -0.069012165 -0.23185611 2.3418052e-38
0.20391285 -0.036977768 -0.24558222 2.3418052e-38
-0.16850746 0.03783083 -0.23326886 2.3418052e-38
-0.18547213 0.086247444 -0.24646175 2.3418052e-38
0.058437943 -0.10671282 -0.21042585 2.3418052e-38
-0.050119042 -0.070774555 -0.21095634 2.3418052e-38
0.097763419 -0.078970909 -0.22248805 2.3418052e-38
0.12556744 -0.086599827 -0.22298622 2.3418052e-38
-0.077756524 -0.063412189 -0.21067619 2.3418052e-38
-0.12989485 -0.037810802 -0.21378946 2.3418052e-38
-0.098175526 -0.031337738 -0.21847844 2.3418052e-38
-0.15404963 -0.017887115 -0.21771836 2.3418052e-38
0.025998354 -0.11429024 -0.20506072 2.3418052e-38
-0.027782559 -0.095333099 -0.20566666 2.3418052e-38
-0.00031423569 -0.10299158 -0.20593643 2.3418052e-38
0.12908709 0.015373707 -0.11173296 2.3418052e-38
-0.095901966 0.081017017 -0.11067688 2.3418052e-38
-0.067656994 0.073267937 -0.11079001 2.3418052e-38
0.021315813 -0.034247398 -0.088685632 2.3418052e-38
0.055426478 -0.022445679 -0.094871521 2.3418052e-38
-0.029013515 -0.0011558533 -0.093492866 2.3418052e-38
0.0014935732 -0.00055503845 -0.096217632 2.3418052e-38
0.091269612 -0.0060658455 -0.10250294 2.3418052e-38
-0.050978184 0.026616096 -0.099308848 2.3418052e-38
0.098665595 0.016607285 0.030351996 2.3418052e-38
0.13199818 0.024141788 0.025751472 2.3418052e-38
-0.091757894 0.095503807 0.025189757 2.3418052e-38
0.056052923 -0.020490646 0.043022275 2.3418052e-38
-0.026032805 0.0086765289 0.042128801 2.3418052e-38
-0.0012854338 -0.0095515251 0.044795513 2.3418052e-38
0.03174448 -0.0011029243 0.040111184 2.3418052e-38
-0.054036975 0.01633215 0.042317748 2.3418052e-38
-0.073486447 0.053286552 0.034478068 2.3418052e-38
0.12983906 0.017638683 0.16581213 2.3418052e-38
-0.069929123 0.065480232 0.1690799 2.3418052e-38
-0.09833169 0.072524071 0.16934443 2.3418052e-38
0.051612616 -0.034348965 0.18327641 2.3418052e-38
-0.0061414242 -0.025272369 0.18533278 2.3418052e-38
0.028293133 -0.012071609 0.17991674 2.3418052e-38
0.088038325 -0.015971184 0.176476 2.3418052e-38
-0.056961179 0.0065011978 0.18162036 2.3418052e-38
-0.025150418 0.011587143 0.1782974 2.3418052e-38
0.097777843 0.013885975 0.30544996 2.3418052e-38
0.13242733 0.025434017 0.30081582 2.3418052e-38
-0.047536492 0.038187027 0.30971253 2.3418052e-38
-0.072310686 0.05731678 0.30729997 2.3418052e-38
-0.095854521 0.081183434 0.30381525 2.3418052e-38
-0.032181382 -0.01160574 0.3189106 2.3418052e-38
-0.0048158169 -0.020980835 0.31911397 2.3418052e-38
0.05399096 -0.026926041 0.31656766 2.3418052e-38
0.02903223 -0.0097227097 0.31468797 2.3418052e-38
0.088340163 -0.01504612 0.44625604 2.3418052e-38
-0.027285933 0.0045428276 0.44927323 2.3418052e-38
0.03120482 -0.0028176308 0.44734645 2.3418052e-38
0.060901046 -0.0053601265 0.44611001 2.3418052e-38
-0.074601054 0.04946661 0.44370365 2.3418052e-38
-0.048758149 0.034079552 0.44510818 2.3418052e-38
0.13691771 0.038958549 0.4337337 2.3418052e-38
-0.093483925 0.08946991 0.43745208 2.3418052e-38
-0.0072143078 -0.028745651 0.45416248 2.3418052e-38
0.07632947 0.042791367 0.57098293 2.3418052e-38
0.10510588 0.03635025 0.5705353 2.3418052e-38
0.051152349 0.0605793 0.56944883 2.3418052e-38
-0.088311434 0.10755157 0.56864738 2.3418052e-38
-0.062628388 0.090504169 0.57016748 2.3418052e-38
0.0012925863 0.098812103 0.56586361 2.3418052e-38
0.12590075 0.0057764053 0.57423991 2.3418052e-38
-0.040403247 0.062169075 0.57360244 2.3418052e-38
0.019502759 0.057747364 0.57144141 2.3418052e-38
-0.12253499 0.094503403 0.57224357 2.3418052e-38
