# .PCD v0.7 - Point Cloud Data file format
VERSION 0.7
FIELDS x y z rgb
SIZE 4 4 4 4
TYPE F F F F
COUNT 1 1 1 1
WIDTH 433
HEIGHT 1
VIEWPOINT 0 0 0 1 0 0 0
POINTS 433
DATA ascii
0.54079086 0.92460251 -0.61848813 2.3509886e-38
0.57984173 0.93141109 -0.61646241 2.3509886e-38
0.66154671 0.93989635 -0.61114764 2.3509886e-38
0.73236293 0.95670605 -0.61106503 2.3509886e-38
0.49455905 0.98120481 -0.61739308 2.3509886e-38
0.75392896 0.96341407 -0.61447728 2.3509886e-38
0.81975746 0.98127574 -0.61134017 2.3509886e-38
0.47829327 1.0329247 -0.61664867 2.3509886e-38
0.89846867 1.0107771 -0.61287785 2.3509886e-38
0.93923998 1.0239624 -0.61864644 2.3509886e-38
0.47055814 1.0604542 -0.61688566 2.3509886e-38
0.99268961 1.0424271 -0.60125983 2.3509886e-38
1.0047145 1.048806 -0.60665578 2.3509886e-38
0.45432773 1.1422915 -0.61749095 2.3509886e-38
0.43766057 1.2334377 -0.61949962 2.3509886e-38
0.44354922 1.2111346 -0.61051512 2.3509886e-38
0.44047987 1.2763511 -0.60115677 2.3509886e-38
0.432533 1.2972438 -0.61425859 2.3509886e-38
0.41920915 1.3676646 -0.61707103 2.3509886e-38
0.51360059 0.91409045 -0.58911306 2.3509886e-38
0.54152656 0.91227996 -0.57831973 2.3509886e-38
0.57859886 0.91456538 -0.57543808 2.3509886e-38
0.50183302 0.93682039 -0.57984012 2.3509886e-38
0.59982491 0.92435628 -0.58590055 2.3509886e-38
0.62155241 0.92995209 -0.57949901 2.3509886e-38
0.66073781 0.93873554 -0.57662416 2.3509886e-38
0.70490575 0.95159602 -0.58335793 2.3509886e-38
0.72988635 0.95821732 -0.5701564 2.3509886e-38
0.49095479 0.981049 -0.58331847 2.3509886e-38
0.74734205 0.96380067 -0.5772869 2.3509886e-38
0.78090453 0.97638506 -0.57998347 2.3509886e-38
0.81623524 0.99159628 -0.57627511 2.3509886e-38
0.84080946 0.99743247 -0.58081996 2.3509886e-38
0.47841531 1.0180683 -0.5981068 2.3509886e-38
0.48413971 1.0180923 -0.57825446 2.3509886e-38
0.86213762 1.0051842 -0.58960545 2.3509886e-38
0.90073383 1.010536 -0.57283801 2.3509886e-38
0.94061297 1.0195512 -0.5794192 2.3509886e-38
0.97565031 1.0331503 -0.5935514 2.3509886e-38
0.47525662 1.0586032 -0.5828653 2.3509886e-38
0.46841377 1.0966072 -0.5797013 2.3509886e-38
1.0637372 1.1042285 -0.59871441 2.3509886e-38
0.46154341 1.1409596 -0.58258384 2.3509886e-38
0.45668274 1.1793389 -0.58075756 2.3509886e-38
0.99899012 1.1783867 -0.56228113 2.3509886e-38
1.0217862 1.1984745 -0.5732258 2.3509886e-38
0.45442846 1.2189199 -0.579193 2.3509886e-38
0.44390368 1.2595733 -0.58402109 2.3509886e-38
1.0669383 1.24394 -0.59648311 2.3509886e-38
0.43352219 1.2992162 -0.57209617 2.3509886e-38
0.42233649 1.3389966 -0.58645958 2.3509886e-38
0.41559479 1.3704634 -0.59817642 2.3509886e-38
0.51424783 1.4627293 -0.56433326 2.3509886e-38
0.52597487 1.5103949 -0.58211827 2.3509886e-38
0.5095799 0.90898746 -0.55064237 2.3509886e-38
0.53619999 0.90969151 -0.54069126 2.3509886e-38
0.57490909 0.91853231 -0.54430693 2.3509886e-38
0.50820929 0.93606299 -0.53759569 2.3509886e-38
0.58548725 0.94080943 -0.53639954 2.3509886e-38
0.615161 0.93648654 -0.53530729 2.3509886e-38
0.65959281 0.94286942 -0.54467672 2.3509886e-38
0.69210565 0.94775152 -0.5554961 2.3509886e-38
0.50168502 0.98402464 -0.54323596 2.3509886e-38
0.54155809 0.98043644 -0.53020513 2.3509886e-38
0.56563926 0.96390688 -0.52901328 2.3509886e-38
0.70832908 0.99108338 -0.54238337 2.3509886e-38
0.73627412 0.97819263 -0.54511756 2.3509886e-38
0.76647997 0.9824484 -0.55478883 2.3509886e-38
0.82172418 0.99637431 -0.53946364 2.3509886e-38
0.85661966 0.99878347 -0.54961312 2.3509886e-38
0.49503973 1.0146991 -0.5371142 2.3509886e-38
0.660411 1.024245 -0.54264098 2.3509886e-38
0.68956673 1.0043594 -0.54242402 2.3509886e-38
0.7586081 1.0387881 -0.53727961 2.3509886e-38
0.77922946 1.026035 -0.53817892 2.3509886e-38
0.80531281 1.0067774 -0.53851295 2.3509886e-38
0.86747009 1.0239929 -0.5348326 2.3509886e-38
0.89762139 1.0119464 -0.53382224 2.3509886e-38
0.9383812 1.0052791 -0.53700012 2.3509886e-38
0.9695794 1.0151292 -0.54815471 2.3509886e-38
0.47636822 1.0652001 -0.55233008 2.3509886e-38
0.48410237 1.0454735 -0.54534221 2.3509886e-38
0.58204806 1.0719535 -0.54310441 2.3509886e-38
0.61910146 1.0515739 -0.5433377 2.3509886e-38
0.66899323 1.0713112 -0.52756697 2.3509886e-38
0.70693308 1.0740225 -0.53708684 2.3509886e-38
0.739461 1.0539278 -0.53779346 2.3509886e-38
0.83280784 1.0708336 -0.52972525 2.3509886e-38
0.85207641 1.05379 -0.52918828 2.3509886e-38
0.47107652 1.0823698 -0.55874759 2.3509886e-38
0.50375211 1.1090313 -0.54234272 2.3509886e-38
0.5390408 1.0927361 -0.54251897 2.3509886e-38
0.57938033 1.1012502 -0.53096187 2.3509886e-38
0.69557369 1.0820076 -0.53727961 2.3509886e-38
0.79166782 1.0874364 -0.52523917 2.3509886e-38
0.81264973 1.086148 -0.52970797 2.3509886e-38
0.47419557 1.1436117 -0.55120951 2.3509886e-38
0.48414972 1.1258268 -0.54563725 2.3509886e-38
0.57777828 1.1503009 -0.53770012 2.3509886e-38
0.90504885 1.1360983 -0.52869475 2.3509886e-38
0.93829697 1.129944 -0.53457749 2.3509886e-38
0.96420228 1.1438104 -0.54449606 2.3509886e-38
0.46994954 1.1773189 -0.55020851 2.3509886e-38
0.50104123 1.1888348 -0.53889138 2.3509886e-38
0.54024982 1.1711712 -0.53875703 2.3509886e-38
0.45881706 1.2201912 -0.5445255 2.3509886e-38
0.48189875 1.2005773 -0.54036301 2.3509886e-38
0.55810106 1.223827 -0.52523917 2.3509886e-38
0.4598414 1.2665254 -0.54428267 2.3509886e-38
0.49928635 1.265874 -0.53138965 2.3509886e-38
0.53797263 1.2510421 -0.53178644 2.3509886e-38
0.42995754 1.3010159 -0.53506017 2.3509886e-38
0.45447692 1.2867151 -0.53287768 2.3509886e-38
0.41652697 1.3313677 -0.54473555 2.3509886e-38
0.5531714 1.3561863 -0.53309536 2.3509886e-38
0.56400901 1.3489996 -0.53218335 2.3509886e-38
0.51068747 1.3784795 -0.53505629 2.3509886e-38
0.53331041 1.3637112 -0.53296512 2.3509886e-38
0.51016569 1.42029 -0.54928434 2.3509886e-38
0.59222656 1.0576367 -0.50631732 2.3509886e-38
0.62150288 1.0555795 -0.51167035 2.3509886e-38
0.66091269 1.0504377 -0.49430674 2.3509886e-38
0.70018125 1.0554496 -0.49459413 2.3509886e-38
0.74030226 1.0648407 -0.50642866 2.3509886e-38
0.78000456 1.0754926 -0.49673176 2.3509886e-38
0.57962072 1.095502 -0.49842051 2.3509886e-38
0.81852055 1.0841838 -0.49444711 2.3509886e-38
0.85123539 1.1045541 -0.50755787 2.3509886e-38
0.56768781 1.1384546 -0.49676356 2.3509886e-38
0.55768389 1.1954302 -0.50342059 2.3509886e-38
0.56316257 1.1757108 -0.50905275 2.3509886e-38
0.92999935 1.1993805 -0.5128274 2.3509886e-38
0.55257076 1.2211661 -0.48785752 2.3509886e-38
0.54672831 1.2566557 -0.49880219 2.3509886e-38
0.55510634 1.3058469 -0.51645041 2.3509886e-38
0.58738953 1.0314512 -0.46350744 2.3509886e-38
0.62161618 1.035799 -0.46528873 2.3509886e-38
0.64490336 1.0397071 -0.44531024 2.3509886e-38
0.57583857 1.0624428 -0.46382868 2.3509886e-38
0.62996566 1.0422482 -0.44325808 2.3509886e-38
0.65920037 1.0439755 -0.45916066 2.3509886e-38
0.70070583 1.0529693 -0.4603591 2.3509886e-38
0.73857009 1.0683596 -0.4625226 2.3509886e-38
0.76552981 1.0710547 -0.4791702 2.3509886e-38
0.56919158 1.0953619 -0.45652607 2.3509886e-38
0.75371569 1.0844383 -0.44624305 2.3509886e-38
0.78103936 1.0893127 -0.45291981 2.3509886e-38
0.82023811 1.0995497 -0.46352938 2.3509886e-38
0.84432173 1.1051269 -0.46993172 2.3509886e-38
0.5631054 1.1416335 -0.46332327 2.3509886e-38
0.87391883 1.1270559 -0.44502491 2.3509886e-38
0.55835569 1.1834061 -0.47626305 2.3509886e-38
0.56816518 1.1780604 -0.4486855 2.3509886e-38
0.56602901 1.2179472 -0.45381919 2.3509886e-38
0.55712819 1.2654814 -0.46721077 2.3509886e-38
0.56218731 1.2471583 -0.46224892 2.3509886e-38
0.55278248 1.2906114 -0.47441337 2.3509886e-38
0.58487684 1.0305194 -0.43128741 2.3509886e-38
0.61331087 1.0320467 -0.43696493 2.3509886e-38
0.58449876 1.0599838 -0.41868183 2.3509886e-38
0.61940598 1.0520167 -0.4125241 2.3509886e-38
0.66064066 1.0612013 -0.42239434 2.3509886e-38
0.70244157 1.0718619 -0.42562756 2.3509886e-38
0.72892666 1.0772272 -0.41703191 2.3509886e-38
0.5795083 1.101724 -0.4206337 2.3509886e-38
0.74661314 1.082442 -0.41032249 2.3509886e-38
0.78143734 1.0898628 -0.41847149 2.3509886e-38
0.82135582 1.1010528 -0.42864177 2.3509886e-38
0.85000831 1.1093235 -0.43608865 2.3509886e-38
0.57508641 1.1429656 -0.42401651 2.3509886e-38
0.87186605 1.127848 -0.4087702 2.3509886e-38
0.57164323 1.1740665 -0.412265 2.3509886e-38
0.56713063 1.2203118 -0.41990411 2.3509886e-38
0.55633056 1.2737067 -0.43370563 2.3509886e-38
0.56141233 1.2552767 -0.42908862 2.3509886e-38
0.55025059 1.2898775 -0.42875007 2.3509886e-38
0.58959037 1.056493 -0.37753502 2.3509886e-38
0.61874294 1.0509061 -0.38055155 2.3509886e-38
0.6630547 1.0623846 -0.38724396 2.3509886e-38
0.69721103 1.0680563 -0.37814471 2.3509886e-38
0.73585725 1.0750991 -0.37358055 2.3509886e-38
0.58344042 1.0974214 -0.38783294 2.3509886e-38
0.75570744 1.0808674 -0.37817448 2.3509886e-38
0.7787227 1.086081 -0.38321468 2.3509886e-38
0.8208791 1.0946161 -0.38804615 2.3509886e-38
0.84885544 1.1057012 -0.37650004 2.3509886e-38
0.57319701 1.137108 -0.37587389 2.3509886e-38
0.89393193 1.152866 -0.38190317 2.3509886e-38
0.55833918 1.1831368 -0.37514246 2.3509886e-38
0.56188029 1.1777315 -0.37417775 2.3509886e-38
0.55739248 1.2175043 -0.38396287 2.3509886e-38
0.55100048 1.2602447 -0.39009666 2.3509886e-38
0.58446348 1.0544572 -0.34571052 2.3509886e-38
0.61897242 1.0477477 -0.34590235 2.3509886e-38
0.65743613 1.0540632 -0.33967915 2.3509886e-38
0.7016598 1.0642828 -0.33372208 2.3509886e-38
0.74042672 1.0717604 -0.34102115 2.3509886e-38
0.76540494 1.0772336 -0.34594148 2.3509886e-38
0.5746572 1.0977181 -0.34124872 2.3509886e-38
0.78807884 1.0835795 -0.34516609 2.3509886e-38
0.8172152 1.0904802 -0.33827838 2.3509886e-38
0.84369135 1.097939 -0.32808587 2.3509886e-38
0.56761092 1.1383023 -0.33298945 2.3509886e-38
0.5591222 1.1941514 -0.3451817 2.3509886e-38
0.56313479 1.1756538 -0.34125632 2.3509886e-38
0.55426472 1.2236241 -0.34686229 2.3509886e-38
0.54624927 1.2532766 -0.33905202 2.3509886e-38
0.54658943 1.3176314 -0.33799991 2.3509886e-38
0.58465111 1.0374509 -0.28639603 2.3509886e-38
0.60764283 1.0369879 -0.29758996 2.3509886e-38
0.5765906 1.057062 -0.30262256 2.3509886e-38
0.6212067 1.0426853 -0.30267125 2.3509886e-38
0.65818357 1.0504869 -0.29373252 2.3509886e-38
0.69961798 1.0611557 -0.30116805 2.3509886e-38
0.7400319 1.0711558 -0.30848831 2.3509886e-38
0.7703681 1.0778036 -0.31390646 2.3509886e-38
0.55972975 1.1148367 -0.29557702 2.3509886e-38
0.56529301 1.1015253 -0.29336363 2.3509886e-38
0.75325435 1.0837873 -0.28054217 2.3509886e-38
0.78301197 1.0904381 -0.29351342 2.3509886e-38
0.81988466 1.1023921 -0.29202682 2.3509886e-38
0.85352063 1.1139065 -0.29828402 2.3509886e-38
0.55831784 1.1394124 -0.30064932 2.3509886e-38
0.56004786 1.1472523 -0.30249378 2.3509886e-38
0.55385387 1.1782597 -0.30848831 2.3509886e-38
0.55223048 1.215538 -0.30537903 2.3509886e-38
0.56436455 1.2143396 -0.28463113 2.3509886e-38
0.55374211 1.2577826 -0.29211596 2.3509886e-38
0.54826766 1.2804388 -0.29606625 2.3509886e-38
0.56893754 1.3715047 -0.31560999 2.3509886e-38
0.58789533 1.0606152 -0.25776431 2.3509886e-38
0.61998993 1.05304 -0.25975102 2.3509886e-38
0.66309983 1.0651519 -0.26669875 2.3509886e-38
0.70312279 1.071973 -0.25820473 2.3509886e-38
0.73407429 1.076965 -0.25078085 2.3509886e-38
0.57891208 1.1005654 -0.26432505 2.3509886e-38
0.74090439 1.0824889 -0.26822022 2.3509886e-38
0.77925336 1.0868073 -0.25196555 2.3509886e-38
0.81811684 1.096711 -0.25779346 2.3509886e-38
0.84658217 1.1080742 -0.26273084 2.3509886e-38
0.57189596 1.143616 -0.26249072 2.3509886e-38
0.56604236 1.1797376 -0.26089394 2.3509886e-38
0.55914956 1.2355027 -0.25550991 2.3509886e-38
0.56147093 1.2171476 -0.2525475 2.3509886e-38
0.55236739 1.2546543 -0.25828719 2.3509886e-38
0.5420779 1.2965146 -0.26476753 2.3509886e-38
0.58725494 1.0594474 -0.22823085 2.3509886e-38
0.62408954 1.0512588 -0.22298111 2.3509886e-38
0.66124356 1.0553602 -0.21969 2.3509886e-38
0.69851571 1.0595477 -0.21462369 2.3509886e-38
0.74173802 1.0669129 -0.21348956 2.3509886e-38
0.775868 1.075574 -0.21788998 2.3509886e-38
0.57231957 1.1022221 -0.21805798 2.3509886e-38
0.79467547 1.0814241 -0.22048391 2.3509886e-38
0.82046914 1.0867829 -0.22372633 2.3509886e-38
0.8453185 1.0901713 -0.2266445 2.3509886e-38
0.55912161 1.154541 -0.21075669 2.3509886e-38
0.5665679 1.1361011 -0.22170313 2.3509886e-38
0.55651879 1.1794645 -0.2142693 2.3509886e-38
0.5519461 1.2197733 -0.21996513 2.3509886e-38
0.54312146 1.2483028 -0.2236615 2.3509886e-38
0.54528797 1.3041923 -0.21533316 2.3509886e-38
0.58909893 1.0344508 -0.1955822 2.3509886e-38
0.61242771 1.0368077 -0.19784109 2.3509886e-38
0.58161175 1.0564477 -0.18372314 2.3509886e-38
0.62108785 1.0548987 -0.1720489 2.3509886e-38
0.65933722 1.0626101 -0.17575574 2.3509886e-38
0.69859278 1.0730163 -0.17995083 2.3509886e-38
0.72500455 1.079325 -0.18273428 2.3509886e-38
0.5816167 1.0978986 -0.17461586 2.3509886e-38
0.74390197 1.083477 -0.18471055 2.3509886e-38
0.77757722 1.0912578 -0.18832111 2.3509886e-38
0.82244587 1.1022235 -0.1814301 2.3509886e-38
0.85103005 1.1095251 -0.18554471 2.3509886e-38
0.57687914 1.1403815 -0.17961285 2.3509886e-38
0.5699513 1.1811019 -0.18431158 2.3509886e-38
0.56334746 1.2167238 -0.1884404 2.3509886e-38
0.55469191 1.2621824 -0.17895526 2.3509886e-38
0.56345004 1.2450051 -0.19205891 2.3509886e-38
0.5496853 1.2837495 -0.16330789 2.3509886e-38
0.58758193 1.0352917 -0.083242722 2.3509886e-38
0.61372966 1.0366504 -0.08424256 2.3509886e-38
0.74090546 1.0657099 -0.090763144 2.3509886e-38
0.77848244 1.0747477 -0.092799358 2.3509886e-38
0.80250645 1.0790023 -0.094031729 2.3509886e-38
0.79509753 1.0819985 -0.093892217 2.3509886e-38
0.82308024 1.0869961 -0.09534315 2.3509886e-38
0.84398353 1.095144 -0.096682474 2.3509886e-38
0.55914998 1.1545995 -0.089706823 2.3509886e-38
0.5564974 1.1794375 -0.091194957 2.3509886e-38
0.55205989 1.2200282 -0.093641087 2.3509886e-38
0.60749215 1.0387583 -0.056117505 2.3509886e-38
0.5845024 1.0510393 -0.056086455 2.3509886e-38
0.62700623 1.0440598 -0.056794517 2.3509886e-38
0.65989512 1.0532179 -0.057961434 2.3509886e-38
0.69893545 1.06348 -0.059347294 2.3509886e-38
0.73882824 1.072746 -0.060744792 2.3509886e-38
0.76488596 1.076493 -0.061583295 2.3509886e-38
0.5722509 1.099483 -0.057803381 2.3509886e-38
0.78622419 1.083293 -0.062421799 2.3509886e-38
0.82021397 1.0929626 -0.063726135 2.3509886e-38
0.84602988 1.100971 -0.064750969 2.3509886e-38
0.56671065 1.1405691 -0.059393872 2.3509886e-38
0.55914772 1.1985518 -0.061676465 2.3509886e-38
0.56232083 1.1784862 -0.060893856 2.3509886e-38
0.55655617 1.2204154 -0.062552229 2.3509886e-38
0.54757011 1.2585248 -0.064005636 2.3509886e-38
0.58400905 1.0572574 -0.028043285 2.3509886e-38
0.61834937 1.0502347 -0.028296543 2.3509886e-38
0.65989763 1.0600127 -0.028990284 2.3509886e-38
0.69934732 1.0674348 -0.029628582 2.3509886e-38
0.73679644 1.0754424 -0.030266879 2.3509886e-38
0.57393092 1.0987893 -0.02878139 2.3509886e-38
0.75104541 1.0802102 -0.03054541 2.3509886e-38
0.77942783 1.0870658 -0.031056045 2.3509886e-38
0.82001895 1.095924 -0.031778894 2.3509886e-38
0.56784165 1.1387691 -0.029544026 2.3509886e-38
0.55960459 1.1995311 -0.030731097 2.3509886e-38
0.56330031 1.1805303 -0.030369008 2.3509886e-38
0.5546279 1.2304008 -0.031334575 2.3509886e-38
0.56032777 1.2146227 -0.031056046 2.3509886e-38
0.54833144 1.2603009 -0.031910203 2.3509886e-38
0.54357374 1.2843285 -0.032379061 2.3509886e-38
0.5840115 1.0572894 0.015268483 2.3509886e-38
0.61816651 1.0499759 0.014132474 2.3509886e-38
0.65816647 1.0606966 0.014486439 2.3509886e-38
0.69945276 1.0693712 0.01393194 2.3509886e-38
0.73558146 1.0762554 0.016492326 2.3509886e-38
0.57345563 1.0978764 0.014358198 2.3509886e-38
0.75649899 1.0840098 0.01021275 2.3509886e-38
0.78045261 1.0884866 0.015511445 2.3509886e-38
0.81990921 1.0973281 0.014629944 2.3509886e-38
0.84706688 1.1076436 0.021477723 2.3509886e-38
0.56953847 1.1364515 0.015876185 2.3509886e-38
0.55847079 1.1882828 0.030483514 2.3509886e-38
0.56477672 1.1747696 0.0090382844 2.3509886e-38
0.5559516 1.2211952 0.017263675 2.3509886e-38
0.56144381 1.2078913 0 2.3509886e-38
0.55028826 1.2598625 0.015926475 2.3509886e-38
0.54423517 1.2858814 0.01618953 2.3509886e-38
0.58123493 1.0522785 0.056063157 2.3509886e-38
0.6197961 1.0492653 0.056831781 2.3509886e-38
0.65909261 1.0587248 0.058159415 2.3509886e-38
0.70027465 1.0688658 0.059591852 2.3509886e-38
0.7334528 1.0749992 0.060688894 2.3509886e-38
0.56867492 1.1003735 0.057763454 2.3509886e-38
0.75413108 1.0816202 0.06149013 2.3509886e-38
0.77961498 1.0873438 0.062395178 2.3509886e-38
0.81707215 1.0953134 0.063726135 2.3509886e-38
0.84658837 1.1080936 0.06503047 2.3509886e-38
0.562949 1.1413168 0.059347291 2.3509886e-38
0.55710161 1.1807461 0.060884543 2.3509886e-38
0.56100446 1.1667242 0.060372125 2.3509886e-38
0.55316138 1.2177842 0.062375218 2.3509886e-38
0.54564291 1.2590054 0.063990109 2.3509886e-38
0.53894031 1.2839622 0.064937308 2.3509886e-38
0.58663023 1.0377474 0.10286274 2.3509886e-38
0.60719913 1.0382535 0.11221347 2.3509886e-38
0.57471824 1.0545442 0.096467458 2.3509886e-38
0.62290663 1.0450183 0.097269058 2.3509886e-38
0.66075504 1.0546011 0.10157096 2.3509886e-38
0.69962978 1.0627621 0.10484038 2.3509886e-38
0.73783255 1.0712938 0.09096244 2.3509886e-38
0.76558423 1.0774783 0.092427328 2.3509886e-38
0.56625688 1.1011045 0.099960126 2.3509886e-38
0.78609407 1.0831238 0.09358529 2.3509886e-38
0.81811601 1.0901487 0.095310599 2.3509886e-38
0.55690974 1.1464391 0.11291409 2.3509886e-38
0.56138903 1.1327382 0.096819639 2.3509886e-38
0.55518085 1.181101 0.091261402 2.3509886e-38
0.54998535 1.2249022 0.093892217 2.3509886e-38
0.54169083 1.26494 0.09622407 2.3509886e-38
0.58636743 1.0615083 0.14182001 2.3509886e-38
0.61919862 1.0586989 0.14342953 2.3509886e-38
0.65915656 1.0692186 0.14689192 2.3509886e-38
0.69719309 1.076529 0.14998926 2.3509886e-38
0.73821944 1.0726845 0.1253287 2.3509886e-38
0.7677272 1.0773616 0.12342244 2.3509886e-38
0.5740335 1.0989817 0.14499481 2.3509886e-38
0.71454144 1.0873723 0.15215743 2.3509886e-38
0.74089187 1.0867748 0.15381671 2.3509886e-38
0.78387493 1.0915236 0.14563054 2.3509886e-38
0.81569368 1.093478 0.13533843 2.3509886e-38
0.84054148 1.0970006 0.12893401 2.3509886e-38
0.56967574 1.1383929 0.14886649 2.3509886e-38
0.55114144 1.1775643 0.12576258 2.3509886e-38
0.56361598 1.1767465 0.1525833 2.3509886e-38
0.55103606 1.2194616 0.14215103 2.3509886e-38
0.5426113 1.2519674 0.13268112 2.3509886e-38
0.53693694 1.284223 0.12986293 2.3509886e-38
0.58445674 1.0563009 0.18323043 2.3509886e-38
0.61628228 1.0544063 0.17740336 2.3509886e-38
0.66018665 1.0639161 0.17597668 2.3509886e-38
0.70205319 1.07499 0.18044786 2.3509886e-38
0.73142993 1.0785573 0.18315181 2.3509886e-38
0.57369286 1.1022664 0.17464237 2.3509886e-38
0.74823207 1.0832503 0.18503065 2.3509886e-38
0.77738327 1.0875807 0.18788372 2.3509886e-38
0.8210814 1.1006799 0.18217246 2.3509886e-38
0.84784955 1.1114542 0.17170215 2.3509886e-38
0.56724232 1.1416327 0.17916219 2.3509886e-38
0.55933177 1.1989462 0.18593527 2.3509886e-38
0.56291062 1.179726 0.18370852 2.3509886e-38
0.55583525 1.2188674 0.18827339 2.3509886e-38
0.55019176 1.2612948 0.18253617 2.3509886e-38
0.54419518 1.2933906 0.17882888 2.3509886e-38
0.57577306 1.0512906 0.22389208 2.3509886e-38
0.62184834 1.0511148 0.21630129 2.3509886e-38
0.66094041 1.0612845 0.222352 2.3509886e-38
0.69606107 1.0691556 0.21979947 2.3509886e-38
0.72863185 1.0778813 0.21375592 2.3509886e-38
0.55721098 1.1134501 0.23458771 2.3509886e-38
0.56807739 1.0962762 0.21634723 2.3509886e-38
0.75027406 1.0827991 0.2164309 2.3509886e-38
0.78148353 1.089927 0.22034495 2.3509886e-38
0.81933695 1.0983412 0.22513138 2.3509886e-38
0.85270756 1.1193391 0.23118389 2.3509886e-38
0.55433738 1.1361245 0.23817965 2.3509886e-38
0.56636703 1.1399651 0.20913549 2.3509886e-38
0.55823022 1.1877617 0.21562029 2.3509886e-38
0.56109923 1.1711115 0.21335061 2.3509886e-38
0.55447078 1.2206453 0.22026777 2.3509886e-38
0.54861957 1.2609762 0.22593117 2.3509886e-38
0.54088253 1.2883255 0.22956267 2.3509886e-38
0.70989829 1.0668451 0.24143834 2.3509886e-38
0.73705161 1.0735472 0.245353 2.3509886e-38
0.78034949 1.0849742 0.25180686 2.3509886e-38
0.81990153 1.0925117 0.25736141 2.3509886e-38
0.55123687 1.1546551 0.24106804 2.3509886e-38
0.54766011 1.1784102 0.2448328 2.3509886e-38
0.54192084 1.2213089 0.25174513 2.3509886e-38
0.53642839 1.2626249 0.25847235 2.3509886e-38
0.53202063 1.2879221 0.2625457 2.3509886e-38
