# .PCD v0.7 - Point Cloud Data file format
VERSION 0.7
FIELDS x y z rgb
SIZE 4 4 4 4
TYPE F F F F
COUNT 1 1 1 1
WIDTH 94
HEIGHT 1
VIEWPOINT 0 0 0 1 0 0 0
POINTS 94
DATA ascii
1.5477657 5.4104943 -2.0484278 2.3509886e-38
1.6975299 5.2979264 -2.025028 2.3509886e-38
1.7244172 5.2863145 -2.0240169 2.3509886e-38
1.7589878 5.2979341 -2.0319684 2.3509886e-38
1.6385578 5.3046336 -2.0209141 2.3509886e-38
1.5603794 5.3483996 -2.0279875 2.3509886e-38
1.6541314 5.2571621 -2.0061047 2.3509886e-38
1.6061211 5.2979527 -2.0151336 2.3509886e-38
1.5815178 5.3170276 -2.0192077 2.3509886e-38
1.4488454 5.3834605 -1.8835732 2.3509886e-38
1.798752 5.233573 -1.869735 2.3509886e-38
1.8327183 5.2428274 -1.8764478 2.3509886e-38
1.4666951 5.3381195 -1.8703736 2.3509886e-38
1.6628289 5.1896262 -1.8411717 2.3509886e-38
1.7299068 5.2103443 -1.8548549 2.3509886e-38
1.7582115 5.2042108 -1.855927 2.3509886e-38
1.5565963 5.233242 -1.8446587 2.3509886e-38
1.5289974 5.2408338 -1.8444842 2.3509886e-38
1.4781321 5.2714233 -1.8496941 2.3509886e-38
1.509289 5.2759919 -1.8540479 2.3509886e-38
1.6259477 5.1675887 -1.8303041 2.3509886e-38
1.6846889 5.164525 -1.8353742 2.3509886e-38
1.5783062 5.206203 -1.8380189 2.3509886e-38
1.6064856 5.2008038 -1.8390605 2.3509886e-38
1.794456 5.2210736 -1.7231969 2.3509886e-38
1.8363121 5.253108 -1.736923 2.3509886e-38
1.4638917 5.3279166 -1.7246096 2.3509886e-38
1.4469271 5.3763332 -1.7378025 2.3509886e-38
1.6908371 5.183373 -1.7017666 2.3509886e-38
1.5822802 5.2193112 -1.7022971 2.3509886e-38
1.7301626 5.2111149 -1.7138288 2.3509886e-38
1.7579666 5.203486 -1.714327 2.3509886e-38
1.5546427 5.2266736 -1.7020169 2.3509886e-38
1.5025043 5.252275 -1.7051302 2.3509886e-38
1.5342237 5.2587481 -1.7098192 2.3509886e-38
1.4783496 5.2721987 -1.7090591 2.3509886e-38
1.6583976 5.1757956 -1.6964015 2.3509886e-38
1.6046166 5.1947527 -1.6970074 2.3509886e-38
1.632085 5.1870942 -1.6972772 2.3509886e-38
1.7614863 5.3054595 -1.6030737 2.3509886e-38
1.5364972 5.3711028 -1.6020176 2.3509886e-38
1.5647422 5.3633537 -1.6021308 2.3509886e-38
1.653715 5.2558384 -1.5800264 2.3509886e-38
1.6878257 5.2676401 -1.5862123 2.3509886e-38
1.6033857 5.2889299 -1.5848336 2.3509886e-38
1.6338928 5.2895308 -1.5875584 2.3509886e-38
1.7236688 5.2840199 -1.5938437 2.3509886e-38
1.581421 5.3167019 -1.5906496 2.3509886e-38
1.7310648 5.3066931 -1.4609888 2.3509886e-38
1.7643974 5.3142276 -1.4655893 2.3509886e-38
1.5406413 5.3855896 -1.466151 2.3509886e-38
1.6884521 5.2695951 -1.4483185 2.3509886e-38
1.6063664 5.2987623 -1.449212 2.3509886e-38
1.6311138 5.2805343 -1.4465452 2.3509886e-38
1.6641437 5.2889829 -1.4512296 2.3509886e-38
1.5783622 5.3064179 -1.449023 2.3509886e-38
1.5589128 5.3433723 -1.4568627 2.3509886e-38
1.7622383 5.3077245 -1.3255286 2.3509886e-38
1.5624701 5.355566 -1.3222609 2.3509886e-38
1.5340675 5.3626099 -1.3219963 2.3509886e-38
1.6840118 5.2557368 -1.3080643 2.3509886e-38
1.6262578 5.2648134 -1.306008 2.3509886e-38
1.6606923 5.2780142 -1.311424 2.3509886e-38
1.7204375 5.2741146 -1.3148648 2.3509886e-38
1.575438 5.296587 -1.3097204 2.3509886e-38
1.6072488 5.3016729 -1.3130434 2.3509886e-38
1.730177 5.3039718 -1.1858908 2.3509886e-38
1.7648265 5.3155198 -1.1905249 2.3509886e-38
1.5848627 5.3282728 -1.1816282 2.3509886e-38
1.5600885 5.3474026 -1.1840408 2.3509886e-38
1.5365447 5.3712692 -1.1875255 2.3509886e-38
1.6002178 5.2784801 -1.1724302 2.3509886e-38
1.6275834 5.269105 -1.1722268 2.3509886e-38
1.6863902 5.2631598 -1.1747731 2.3509886e-38
1.6614314 5.2803631 -1.1766528 2.3509886e-38
1.7207394 5.2750397 -1.0450847 2.3509886e-38
1.6051133 5.2946286 -1.0420675 2.3509886e-38
1.663604 5.2872682 -1.0439943 2.3509886e-38
1.6933002 5.2847257 -1.0452307 2.3509886e-38
1.5577981 5.3395524 -1.0476371 2.3509886e-38
1.5836411 5.3241653 -1.0462326 2.3509886e-38
1.7693169 5.3290443 -1.0576071 2.3509886e-38
1.5389153 5.3795557 -1.0538887 2.3509886e-38
1.6251849 5.2613401 -1.0371783 2.3509886e-38
1.7087287 5.3328772 -0.92035782 2.3509886e-38
1.7375051 5.326436 -0.92080545 2.3509886e-38
1.6835515 5.3506651 -0.92189193 2.3509886e-38
1.5440878 5.3976374 -0.92269337 2.3509886e-38
1.5697708 5.38059 -0.92117327 2.3509886e-38
1.6336918 5.3888979 -0.92547715 2.3509886e-38
1.7582999 5.2958622 -0.91710085 2.3509886e-38
1.591996 5.3522549 -0.91773832 2.3509886e-38
1.651902 5.3478332 -0.91989934 2.3509886e-38
1.5098642 5.3845892 -0.91909719 2.3509886e-38
