# .PCD v0.7 - Point Cloud Data file format
VERSION 0.7
FIELDS x y z rgb
SIZE 4 4 4 4
TYPE F F F F
COUNT 1 1 1 1
WIDTH 170
HEIGHT 1
VIEWPOINT 0 0 0 1 0 0 0
POINTS 170
DATA ascii
-0.73249263 2.427681 -0.60083747 2.3509886e-38
-0.71523279 2.4348574 -0.60129857 2.3509886e-38
-0.69374931 2.4523737 -0.60388088 2.3509886e-38
-0.66388339 2.4695036 -0.60590982 2.3509886e-38
-0.8006717 2.3999126 -0.59945416 2.3509886e-38
-0.78064752 2.3983119 -0.59760964 2.3509886e-38
-0.76682127 2.4027691 -0.59760964 2.3509886e-38
-0.74640006 2.4183359 -0.59968472 2.3509886e-38
-0.86145753 2.5089643 -0.56385654 2.3509886e-38
-0.8793478 2.5379732 -0.57092553 2.3509886e-38
-0.90674275 2.5812469 -0.58152902 2.3509886e-38
-0.50003517 2.594223 -0.56156957 2.3509886e-38
-0.93474901 2.6221809 -0.59171677 2.3509886e-38
-0.48566097 2.6039174 -0.56302488 2.3509886e-38
-0.45837259 2.6247184 -0.56635147 2.3509886e-38
-0.95199794 2.6471736 -0.59795409 2.3509886e-38
-0.41963729 2.6502144 -0.57034338 2.3509886e-38
-0.39799714 2.6662333 -0.57300466 2.3509886e-38
-0.39423364 2.692498 -0.57841039 2.3509886e-38
-0.81228894 2.4347336 -0.5455603 2.3509886e-38
-0.77547747 2.4179382 -0.53973883 2.3509886e-38
-0.74528491 2.4335618 -0.5409863 2.3509886e-38
-0.82638097 2.4527054 -0.55013436 2.3509886e-38
-0.72728056 2.4481988 -0.54285753 2.3509886e-38
-0.70096809 2.4646471 -0.54465938 2.3509886e-38
-0.67787218 2.4795825 -0.54639196 2.3509886e-38
-0.8434999 2.4820218 -0.55720335 2.3509886e-38
-0.65861821 2.4928377 -0.54805523 2.3509886e-38
-0.63259655 2.5116901 -0.55055022 2.3509886e-38
-0.61204594 2.5234864 -0.55193633 2.3509886e-38
-0.58134407 2.5397418 -0.5538075 2.3509886e-38
-0.55384612 2.556253 -0.55595589 2.3509886e-38
-0.53361964 2.5700324 -0.55793107 2.3509886e-38
-0.51306331 2.5817051 -0.55949044 2.3509886e-38
-0.94002151 2.6752479 -0.5342564 2.3509886e-38
-0.91042656 2.6766462 -0.5326826 2.3509886e-38
-0.82223541 2.6577671 -0.52416563 2.3509886e-38
-0.97585464 2.7016153 -0.54119962 2.3509886e-38
-0.89819175 2.6838799 -0.53323805 2.3509886e-38
-0.86408645 2.694221 -0.53308994 2.3509886e-38
-1.0009964 2.7353487 -0.54879087 2.3509886e-38
-0.5463689 2.7268713 -0.5239805 2.3509886e-38
-0.54266328 2.7943709 -0.53632396 2.3509886e-38
-0.52740544 2.8046317 -0.5376817 2.3509886e-38
-0.50656092 2.8054612 -0.53712624 2.3509886e-38
-0.78939551 2.590076 -0.44485873 2.3509886e-38
-0.8088181 2.6274714 -0.45166779 2.3509886e-38
-0.65134227 2.6017494 -0.44064361 2.3509886e-38
-0.61889273 2.6169395 -0.44181085 2.3509886e-38
-0.59092957 2.6343324 -0.44356179 2.3509886e-38
-0.57108289 2.6548579 -0.4461557 2.3509886e-38
-0.54632151 2.6686196 -0.44753373 2.3509886e-38
-0.53429532 2.7108064 -0.4539375 2.3509886e-38
-0.77031118 2.5546167 -0.43837392 2.3509886e-38
-0.73649204 2.5472958 -0.43565026 2.3509886e-38
-0.71569544 2.5581586 -0.43642846 2.3509886e-38
-0.69528437 2.571528 -0.4376606 2.3509886e-38
-0.66820765 2.5899906 -0.4394547 2.3509886e-38
-0.6388163 2.6007915 -0.43999514 2.3509886e-38
-0.75590593 2.5584505 -0.37493238 2.3509886e-38
-0.7741847 2.5674624 -0.37688079 2.3509886e-38
-0.73451769 2.5683579 -0.37543339 2.3509886e-38
-0.70023417 2.5898173 -0.37704778 2.3509886e-38
-0.79565752 2.6106219 -0.38356107 2.3509886e-38
-0.66235751 2.6141913 -0.37901476 2.3509886e-38
-0.6304906 2.6322696 -0.3804065 2.3509886e-38
-0.82416534 2.6640191 -0.39191148 2.3509886e-38
-0.60988688 2.6459281 -0.38161266 2.3509886e-38
-0.58107346 2.6637411 -0.38317138 2.3509886e-38
-0.55985004 2.6751864 -0.38411781 2.3509886e-38
-0.54597664 2.6868031 -0.38532397 2.3509886e-38
-0.7991969 2.6222351 -0.32057595 2.3509886e-38
-0.81762016 2.6560652 -0.32498968 2.3509886e-38
-0.56813574 2.6797698 -0.32034364 2.3509886e-38
-0.83977693 2.7011948 -0.3307972 2.3509886e-38
-0.5611186 2.6812479 -0.32034364 2.3509886e-38
-0.54682666 2.6909492 -0.32111797 2.3509886e-38
-0.77822208 2.5808518 -0.31523302 2.3509886e-38
-0.73864174 2.5686619 -0.31256154 2.3509886e-38
-0.7079978 2.5886309 -0.3138392 2.3509886e-38
-0.68773633 2.6029921 -0.31484583 2.3509886e-38
-0.65968865 2.6197863 -0.31592992 2.3509886e-38
-0.63506103 2.6350801 -0.31697527 2.3509886e-38
-0.61450946 2.6486053 -0.31796253 2.3509886e-38
-0.58594251 2.667275 -0.31935635 2.3509886e-38
-0.77323866 2.5643251 -0.24987932 2.3509886e-38
-0.73889726 2.5695622 -0.24944584 2.3509886e-38
-0.70461869 2.5912321 -0.25052959 2.3509886e-38
-0.79651952 2.6134503 -0.25489551 2.3509886e-38
-0.68410033 2.6039429 -0.25117981 2.3509886e-38
-0.6598469 2.6204429 -0.25210875 2.3509886e-38
-0.63475478 2.6338229 -0.25275898 2.3509886e-38
-0.81494564 2.647377 -0.25842538 2.3509886e-38
-0.61444938 2.6483343 -0.25364146 2.3509886e-38
-0.58641976 2.6694646 -0.25498837 2.3509886e-38
-0.83534092 2.6869259 -0.26251265 2.3509886e-38
-0.56499201 2.6822348 -0.25573152 2.3509886e-38
-0.547113 2.6923687 -0.25631982 2.3509886e-38
-0.89753354 2.798847 -0.27421701 2.3509886e-38
-0.89557981 2.7927544 -0.20508403 2.3509886e-38
-0.77182478 2.5596361 -0.18694735 2.3509886e-38
-0.73666537 2.5479457 -0.18546852 2.3509886e-38
-0.71492296 2.5553975 -0.18555222 2.3509886e-38
-0.69559652 2.5726924 -0.18636139 2.3509886e-38
-0.6645577 2.5916033 -0.18708685 2.3509886e-38
-0.81120801 2.6352351 -0.1928069 2.3509886e-38
-0.79337651 2.603138 -0.19029567 2.3509886e-38
-0.64779401 2.6020281 -0.18750541 2.3509886e-38
-0.62225378 2.6143737 -0.18792395 2.3509886e-38
-0.59084266 2.633945 -0.18876101 2.3509886e-38
-0.5693574 2.6468365 -0.18931907 2.3509886e-38
-0.54549432 2.6645808 -0.19019103 2.3509886e-38
-0.83692473 2.6920204 -0.1971318 2.3509886e-38
-0.7375592 2.5510085 -0.1238374 2.3509886e-38
-0.77402312 2.5669265 -0.12502992 2.3509886e-38
-0.69942719 2.5719995 -0.12430012 2.3509886e-38
-0.66894263 2.5928469 -0.12487465 2.3509886e-38
-0.79619777 2.6123946 -0.12735911 2.3509886e-38
-0.64805168 2.6050103 -0.12518521 2.3509886e-38
-0.61961085 2.6199818 -0.12555167 2.3509886e-38
-0.59541672 2.6356421 -0.12600818 2.3509886e-38
-0.81700832 2.6540775 -0.12950194 2.3509886e-38
-0.57446986 2.6520305 -0.12654388 2.3509886e-38
-0.54693604 2.6716125 -0.12717277 2.3509886e-38
-0.83627832 2.6899412 -0.13136528 2.3509886e-38
-0.86347568 2.732708 -0.13364786 2.3509886e-38
-0.77119213 2.5575383 -0.062019251 2.3509886e-38
-0.74429393 2.5557606 -0.061802614 2.3509886e-38
-0.73285949 2.5625343 -0.061879985 2.3509886e-38
-0.70164579 2.5802145 -0.062081147 2.3509886e-38
-0.67868948 2.5980935 -0.062344201 2.3509886e-38
-0.81238151 2.6390474 -0.064108223 2.3509886e-38
-0.79568243 2.6107039 -0.063365474 2.3509886e-38
-0.65667593 2.6078458 -0.062437046 2.3509886e-38
-0.6215021 2.6279588 -0.062697008 2.3509886e-38
-0.60115772 2.6417332 -0.062901258 2.3509886e-38
-0.57979739 2.6579406 -0.063161224 2.3509886e-38
-0.55529404 2.6731956 -0.06338869 2.3509886e-38
-0.85440958 2.7181075 -0.06615077 2.3509886e-38
-0.83399367 2.6825924 -0.065222338 2.3509886e-38
-0.54186398 2.6861506 -0.063620791 2.3509886e-38
-0.86912787 2.7365232 -0.06666141 2.3509886e-38
-0.75604969 2.5450735 0 2.3509886e-38
-0.77428693 2.5678015 0 2.3509886e-38
-0.73469627 2.5689862 0 2.3509886e-38
-0.70321757 2.5860803 0 2.3509886e-38
-0.79531384 2.6094944 0 2.3509886e-38
-0.68376917 2.6026769 0 2.3509886e-38
-0.6589008 2.6166954 0 2.3509886e-38
-0.62686938 2.6339164 0 2.3509886e-38
-0.81554252 2.6493158 0 2.3509886e-38
-0.60679388 2.6493983 0 2.3509886e-38
-0.5782001 2.6687162 0 2.3509886e-38
-0.83540589 2.687135 0 2.3509886e-38
-0.54670292 2.6903408 0 2.3509886e-38
-0.86561644 2.7394927 0 2.3509886e-38
-0.76106095 2.548053 0.061740719 2.3509886e-38
-0.74705267 2.5563543 0.061833564 2.3509886e-38
-0.72900772 2.562602 0.061856773 2.3509886e-38
-0.70234519 2.5827873 0.062143043 2.3509886e-38
-0.81238151 2.6390474 0.064108223 2.3509886e-38
-0.79276782 2.6011407 0.063133366 2.3509886e-38
-0.6610024 2.608804 0.062483471 2.3509886e-38
-0.62612098 2.6307755 0.062785208 2.3509886e-38
-0.60528857 2.6428382 0.062947683 2.3509886e-38
-0.57963485 2.6571574 0.06314265 2.3509886e-38
-0.55488735 2.6712379 0.063342266 2.3509886e-38
-0.83458716 2.6845014 0.065268755 2.3509886e-38
-0.54127216 2.6832104 0.063551158 2.3509886e-38
-0.8635816 2.7330332 0.066545352 2.3509886e-38
