# .PCD v0.7 - Point Cloud Data file format
VERSION 0.7
FIELDS x y z rgb
SIZE 4 4 4 4
TYPE F F F F
COUNT 1 1 1 1
WIDTH 170
HEIGHT 1
VIEWPOINT 0 0 0 1 0 0 0
POINTS 170
DATA ascii
-0.032850027 -0.18448949 -0.31551287 2.3418052e-38
-0.015590191 -0.17731309 -0.31597397 2.3418052e-38
0.00589329 -0.15979671 -0.31855628 2.3418052e-38
0.035759211 -0.14266682 -0.32058522 2.3418052e-38
-0.1010291 -0.21225786 -0.31412956 2.3418052e-38
-0.081004918 -0.2138586 -0.31228504 2.3418052e-38
-0.067178667 -0.20940137 -0.31228504 2.3418052e-38
-0.04675746 -0.19383454 -0.31436011 2.3418052e-38
-0.16181493 -0.10320616 -0.27853194 2.3418052e-38
-0.1797052 -0.074197292 -0.28560093 2.3418052e-38
-0.20710015 -0.030923605 -0.29620442 2.3418052e-38
0.19960743 -0.017947435 -0.27624497 2.3418052e-38
-0.23510641 0.010010481 -0.30639216 2.3418052e-38
0.21398163 -0.0082530975 -0.27770028 2.3418052e-38
0.24127001 0.01254797 -0.28102687 2.3418052e-38
-0.25235534 0.035003185 -0.31262949 2.3418052e-38
0.28000531 0.038043976 -0.28501877 2.3418052e-38
0.30164546 0.054062843 -0.28768006 2.3418052e-38
0.30540895 0.080327511 -0.29308578 2.3418052e-38
-0.11264634 -0.17743683 -0.2602357 2.3418052e-38
-0.07583487 -0.19423223 -0.25441423 2.3418052e-38
-0.045642316 -0.17860866 -0.2556617 2.3418052e-38
-0.12673837 -0.15946507 -0.26480976 2.3418052e-38
-0.027637959 -0.16397166 -0.25753292 2.3418052e-38
-0.0013254881 -0.1475234 -0.25933477 2.3418052e-38
0.021770418 -0.13258791 -0.26106736 2.3418052e-38
-0.1438573 -0.13014865 -0.27187875 2.3418052e-38
0.041024387 -0.11933279 -0.26273063 2.3418052e-38
0.067046046 -0.10048032 -0.26522562 2.3418052e-38
0.087596655 -0.088684082 -0.26661173 2.3418052e-38
0.11829853 -0.072428703 -0.26848289 2.3418052e-38
0.14579648 -0.055917501 -0.27063128 2.3418052e-38
0.16602296 -0.0421381 -0.27260646 2.3418052e-38
0.18657929 -0.030465364 -0.27416584 2.3418052e-38
-0.24037892 0.06307745 -0.2489318 2.3418052e-38
-0.21078396 0.064475775 -0.24735799 2.3418052e-38
-0.12259281 0.0455966 -0.23884103 2.3418052e-38
-0.27621204 0.089444876 -0.25587502 2.3418052e-38
-0.19854915 0.071709394 -0.24791345 2.3418052e-38
-0.16444385 0.082050562 -0.24776533 2.3418052e-38
-0.30135375 0.12317824 -0.26346627 2.3418052e-38
0.1532737 0.11470079 -0.23865589 2.3418052e-38
0.15697932 0.18220043 -0.25099936 2.3418052e-38
0.17223716 0.19246125 -0.2523571 2.3418052e-38
0.19308168 0.19329071 -0.25180164 2.3418052e-38
-0.089752913 -0.022094488 -0.15953413 2.3418052e-38
-0.1091755 0.015300989 -0.16634318 2.3418052e-38
0.048300326 -0.010421038 -0.15531901 2.3418052e-38
0.080749869 0.0047690868 -0.15648624 2.3418052e-38
0.10871303 0.022161961 -0.15823719 2.3418052e-38
0.12855971 0.042687416 -0.16083109 2.3418052e-38
0.15332109 0.056449175 -0.16220912 2.3418052e-38
0.16534728 0.098635912 -0.1686129 2.3418052e-38
-0.070668578 -0.057553768 -0.15304932 2.3418052e-38
-0.036849439 -0.064874649 -0.15032566 2.3418052e-38
-0.016052842 -0.054011822 -0.15110385 2.3418052e-38
0.004358232 -0.0406425 -0.152336 2.3418052e-38
0.031434953 -0.022179842 -0.1541301 2.3418052e-38
0.060826302 -0.011379004 -0.15467054 2.3418052e-38
-0.056263328 -0.053719997 -0.089607775 2.3418052e-38
-0.074542105 -0.044708014 -0.091556191 2.3418052e-38
-0.034875095 -0.043812513 -0.090108782 2.3418052e-38
-0.0005915761 -0.022353172 -0.091723174 2.3418052e-38
-0.096014917 -0.0015485287 -0.098236471 2.3418052e-38
0.037285089 0.0020208359 -0.093690157 2.3418052e-38
0.069151998 0.020099163 -0.095081896 2.3418052e-38
-0.12452275 0.05184865 -0.10658687 2.3418052e-38
0.089755714 0.033757687 -0.096288055 2.3418052e-38
0.11856914 0.051570654 -0.097846776 2.3418052e-38
0.13979256 0.063015938 -0.098793209 2.3418052e-38
0.15366596 0.074632645 -0.099999368 2.3418052e-38
-0.0995543 0.010064602 -0.035251349 2.3418052e-38
-0.11797756 0.043894768 -0.039665073 2.3418052e-38
0.13150686 0.067599297 -0.03501904 2.3418052e-38
-0.14013433 0.089024305 -0.045472592 2.3418052e-38
0.138524 0.069077492 -0.03501904 2.3418052e-38
0.15281594 0.078778744 -0.035793364 2.3418052e-38
-0.078579485 -0.031318665 -0.029908419 2.3418052e-38
-0.03899914 -0.04350853 -0.027236938 2.3418052e-38
-0.0083552003 -0.023539543 -0.028514594 2.3418052e-38
0.011906266 -0.0091784 -0.029521227 2.3418052e-38
0.039953947 0.0076158047 -0.030605316 2.3418052e-38
0.064581573 0.022909641 -0.031650662 2.3418052e-38
0.085133135 0.036434889 -0.032637924 2.3418052e-38
0.11370009 0.055104494 -0.034031749 2.3418052e-38
-0.07359606 -0.047845364 0.035445288 2.3418052e-38
-0.039254665 -0.042608261 0.035878763 2.3418052e-38
-0.0049760938 -0.020938396 0.034795016 2.3418052e-38
-0.096876919 0.0012798309 0.030429095 2.3418052e-38
0.015542269 -0.0082275867 0.034144789 2.3418052e-38
0.039795697 0.0082724094 0.033215851 2.3418052e-38
0.064887822 0.02165246 0.032565624 2.3418052e-38
-0.11530304 0.035206556 0.026899219 2.3418052e-38
0.085193217 0.036163807 0.031683147 2.3418052e-38
0.11322284 0.05729413 0.030336231 2.3418052e-38
-0.13569832 0.07475543 0.022811949 2.3418052e-38
0.13465059 0.070064306 0.02959308 2.3418052e-38
0.1525296 0.080198288 0.029004782 2.3418052e-38
-0.19789094 0.1866765 0.011107594 2.3418052e-38
-0.19593722 0.18058395 0.080240577 2.3418052e-38
-0.072182178 -0.052534342 0.098377258 2.3418052e-38
-0.037022769 -0.06422472 0.099856079 2.3418052e-38
-0.015280366 -0.056772947 0.099772379 2.3418052e-38
0.0040460825 -0.039478064 0.098963216 2.3418052e-38
0.035084903 -0.020567179 0.098237753 2.3418052e-38
-0.11156541 0.023064613 0.092517704 2.3418052e-38
-0.093733907 -0.0090324879 0.095028937 2.3418052e-38
0.05184859 -0.010142326 0.097819194 2.3418052e-38
0.077388823 0.0022032261 0.09740065 2.3418052e-38
0.10879993 0.02177453 0.096563593 2.3418052e-38
0.1302852 0.034666061 0.096005529 2.3418052e-38
0.15414828 0.052410364 0.095133573 2.3418052e-38
-0.13728213 0.079849958 0.088192806 2.3418052e-38
-0.037916601 -0.061161995 0.16148721 2.3418052e-38
-0.074380517 -0.045243979 0.16029468 2.3418052e-38
0.00021541119 -0.040170908 0.16102448 2.3418052e-38
0.030699968 -0.019323587 0.16044995 2.3418052e-38
-0.096555173 0.00022411346 0.1579655 2.3418052e-38
0.051590919 -0.0071601868 0.1601394 2.3418052e-38
0.080031753 0.0078113079 0.15977293 2.3418052e-38
0.10422587 0.023471594 0.15931642 2.3418052e-38
-0.11736572 0.041907072 0.15582266 2.3418052e-38
0.12517273 0.03986001 0.15878072 2.3418052e-38
0.15270656 0.059442043 0.15815184 2.3418052e-38
-0.13663572 0.07777071 0.15395932 2.3418052e-38
-0.16383308 0.12053752 0.15167674 2.3418052e-38
-0.071549535 -0.054632187 0.22330534 2.3418052e-38
-0.04465133 -0.056409836 0.22352199 2.3418052e-38
-0.033216894 -0.049636126 0.22344461 2.3418052e-38
-0.0020031929 -0.031955957 0.22324346 2.3418052e-38
0.020953119 -0.014076948 0.22298041 2.3418052e-38
-0.11273891 0.026876926 0.22121638 2.3418052e-38
-0.096039832 -0.0014665127 0.22195913 2.3418052e-38
0.042966664 -0.0043246746 0.22288756 2.3418052e-38
0.078140497 0.015788317 0.2226276 2.3418052e-38
0.098484874 0.029562712 0.22242334 2.3418052e-38
0.11984521 0.045770168 0.22216338 2.3418052e-38
0.14434856 0.061025143 0.22193591 2.3418052e-38
-0.15476698 0.105937 0.21917383 2.3418052e-38
-0.13435107 0.070421934 0.22010227 2.3418052e-38
0.15777862 0.073980093 0.22170381 2.3418052e-38
-0.16948527 0.12435269 0.21866319 2.3418052e-38
-0.056407094 -0.067096949 0.2853246 2.3418052e-38
-0.074644327 -0.044368982 0.2853246 2.3418052e-38
-0.03505367 -0.04318428 0.2853246 2.3418052e-38
-0.0035749674 -0.026090145 0.2853246 2.3418052e-38
-0.095671237 -0.0026760101 0.2853246 2.3418052e-38
0.015873432 -0.0094935894 0.2853246 2.3418052e-38
0.040741801 0.0045249462 0.2853246 2.3418052e-38
0.072773218 0.02174592 0.2853246 2.3418052e-38
-0.11589992 0.037145376 0.2853246 2.3418052e-38
0.092848718 0.037227869 0.2853246 2.3418052e-38
0.1214425 0.056545734 0.2853246 2.3418052e-38
-0.13576329 0.074964523 0.2853246 2.3418052e-38
0.15293968 0.0781703 0.2853246 2.3418052e-38
-0.16597384 0.1273222 0.2853246 2.3418052e-38
-0.061418355 -0.064117432 0.34706533 2.3418052e-38
-0.047410071 -0.055816174 0.34715816 2.3418052e-38
-0.029365122 -0.049568415 0.34718138 2.3418052e-38
-0.0027025938 -0.029383183 0.34746766 2.3418052e-38
-0.11273891 0.026876926 0.34943283 2.3418052e-38
-0.093125224 -0.01102972 0.34845796 2.3418052e-38
0.038640201 -0.0033664703 0.34780806 2.3418052e-38
0.073521614 0.018604994 0.34810981 2.3418052e-38
0.094354033 0.030667782 0.34827229 2.3418052e-38
0.12000775 0.044986963 0.34846726 2.3418052e-38
0.14475524 0.059067488 0.34866688 2.3418052e-38
-0.13494456 0.072330952 0.35059336 2.3418052e-38
0.15837044 0.071039915 0.34887576 2.3418052e-38
-0.163939 0.12086272 0.35186994 2.3418052e-38
