# .PCD v0.7 - Point Cloud Data file format
VERSION 0.7
FIELDS x y z rgb
SIZE 4 4 4 4
TYPE F F F F
COUNT 1 1 1 1
WIDTH 139
HEIGHT 1
VIEWPOINT 0 0 0 1 0 0 0
POINTS 139
DATA ascii
0.75383615 -4.4302435 -2.0010324 2.3509886e-38
0.60968047 -4.4194007 -1.9864877 2.3509886e-38
0.63160819 -4.4075565 -1.9826249 2.3509886e-38
0.72510099 -4.4007463 -1.9859649 2.3509886e-38
0.65309173 -4.3933382 -1.977742 2.3509886e-38
0.67361605 -4.3736434 -1.9704385 2.3509886e-38
0.69788343 -4.378521 -1.974257 2.3509886e-38
0.89432162 -4.4119406 -1.8801988 2.3509886e-38
0.47354788 -4.4660659 -1.8757848 2.3509886e-38
0.49384239 -4.435586 -1.8640448 2.3509886e-38
0.83913743 -4.3747764 -1.8605094 2.3509886e-38
0.86388922 -4.3795977 -1.8644601 2.3509886e-38
0.51302499 -4.3981123 -1.8494012 2.3509886e-38
0.53655672 -4.3993282 -1.8510698 2.3509886e-38
0.80813283 -4.3358693 -1.8421359 2.3509886e-38
0.55606467 -4.3685951 -1.8393397 2.3509886e-38
0.57673448 -4.3488584 -1.8322777 2.3509886e-38
0.62002647 -4.3267355 -1.8255953 2.3509886e-38
0.64318436 -4.3266916 -1.8269743 2.3509886e-38
0.66600049 -4.3241973 -1.82737 2.3509886e-38
0.68607759 -4.304451 -1.8205203 2.3509886e-38
0.71013296 -4.3099031 -1.8243756 2.3509886e-38
0.78029257 -4.311862 -1.8301731 2.3509886e-38
0.73120153 -4.2972212 -1.8206049 2.3509886e-38
0.75432271 -4.2967753 -1.8220663 2.3509886e-38
0.59536058 -4.3155999 -1.8195549 2.3509886e-38
0.52969366 -4.5410109 -1.7857008 2.3509886e-38
0.48124024 -4.5386133 -1.7826759 2.3509886e-38
0.5043487 -4.5299511 -1.7802876 2.3509886e-38
0.859855 -4.4827857 -1.7828521 2.3509886e-38
0.54968303 -4.5069532 -1.7734168 2.3509886e-38
0.57290459 -4.5008945 -1.7721901 2.3509886e-38
0.83122164 -4.4597478 -1.7719321 2.3509886e-38
0.87934589 -4.4579573 -1.7747864 2.3509886e-38
0.90282571 -4.4538937 -1.7750283 2.3509886e-38
0.59081185 -4.455009 -1.7553184 2.3509886e-38
0.80038792 -4.4229078 -1.7556039 2.3509886e-38
0.60936731 -4.4171305 -1.7416286 2.3509886e-38
0.77455568 -4.4120269 -1.7496492 2.3509886e-38
0.74766254 -4.3939614 -1.740907 2.3509886e-38
0.62897295 -4.3891668 -1.731879 2.3509886e-38
0.65366995 -4.3972282 -1.7363882 2.3509886e-38
0.6768859 -4.3948736 -1.7368357 2.3509886e-38
0.69943804 -4.3882742 -1.7356528 2.3509886e-38
0.72063643 -4.3736501 -1.731339 2.3509886e-38
0.55355287 -4.5386825 -1.6643298 2.3509886e-38
0.56911576 -4.471128 -1.6406292 2.3509886e-38
0.58761138 -4.4308758 -1.6269668 2.3509886e-38
0.60847974 -4.410697 -1.6207064 2.3509886e-38
0.63280338 -4.4158969 -1.6238137 2.3509886e-38
0.67769831 -4.4001484 -1.6205465 2.3509886e-38
0.79942322 -4.4175768 -1.6341225 2.3509886e-38
0.72467166 -4.3981409 -1.6225162 2.3509886e-38
0.74740636 -4.3924561 -1.6218421 2.3509886e-38
0.77241915 -4.3998566 -1.6260474 2.3509886e-38
0.65140325 -4.3819799 -1.6125753 2.3509886e-38
0.69939923 -4.388031 -1.6174117 2.3509886e-38
0.55172753 -4.5237164 -1.5397069 2.3509886e-38
0.80240333 -4.4340448 -1.5224172 2.3509886e-38
0.56715477 -4.4557223 -1.5175554 2.3509886e-38
0.5858466 -4.4175682 -1.5055858 2.3509886e-38
0.6089533 -4.4141293 -1.5054811 2.3509886e-38
0.74989319 -4.4070711 -1.5103732 2.3509886e-38
0.72376275 -4.3926239 -1.5041012 2.3509886e-38
0.77125549 -4.3932281 -1.506994 2.3509886e-38
0.62790191 -4.3816929 -1.4955204 2.3509886e-38
0.69881409 -4.3843598 -1.4999963 2.3509886e-38
0.65052742 -4.3760881 -1.4947507 2.3509886e-38
0.67244774 -4.3660579 -1.4925083 2.3509886e-38
0.55380112 -4.5407181 -1.4277774 2.3509886e-38
0.567734 -4.4602728 -1.4033989 2.3509886e-38
0.77596486 -4.4200535 -1.4007111 2.3509886e-38
0.80321163 -4.4385114 -1.4078754 2.3509886e-38
0.58814657 -4.4349108 -1.3963698 2.3509886e-38
0.61172229 -4.4342012 -1.3971367 2.3509886e-38
0.63279945 -4.4158692 -1.3923868 2.3509886e-38
0.65307987 -4.3932586 -1.3863177 2.3509886e-38
0.72377777 -4.3927155 -1.3895665 2.3509886e-38
0.69713151 -4.3738031 -1.382409 2.3509886e-38
0.7443862 -4.3747067 -1.3850851 2.3509886e-38
0.67275006 -4.3680205 -1.3794476 2.3509886e-38
0.55294973 -4.5337372 -1.3097428 2.3509886e-38
0.56603569 -4.4469304 -1.2855049 2.3509886e-38
0.61293864 -4.443018 -1.2861609 2.3509886e-38
0.58794934 -4.4334235 -1.2824738 2.3509886e-38
0.74951816 -4.4048667 -1.2813095 2.3509886e-38
0.77480412 -4.4134417 -1.2849675 2.3509886e-38
0.7975387 -4.4071631 -1.2843392 2.3509886e-38
0.6322279 -4.411881 -1.2780893 2.3509886e-38
0.70069152 -4.3961387 -1.2765634 2.3509886e-38
0.72247761 -4.3848248 -1.2743603 2.3509886e-38
0.65080321 -4.3779435 -1.2692287 2.3509886e-38
0.67232352 -4.3652511 -1.2665534 2.3509886e-38
0.54965413 -4.5067163 -1.1883148 2.3509886e-38
0.80476242 -4.4470811 -1.1828706 2.3509886e-38
0.56898123 -4.4700713 -1.1794227 2.3509886e-38
0.586519 -4.4226384 -1.1677028 2.3509886e-38
0.61030471 -4.4239259 -1.1688713 2.3509886e-38
0.63434952 -4.4266863 -1.1704632 2.3509886e-38
0.65723091 -4.4211826 -1.1699029 2.3509886e-38
0.75209999 -4.4200401 -1.1735162 2.3509886e-38
0.6806426 -4.4192653 -1.1703235 2.3509886e-38
0.72536469 -4.4023466 -1.1677929 2.3509886e-38
0.77489054 -4.4139338 -1.1729573 2.3509886e-38
0.70063335 -4.3957739 -1.1650591 2.3509886e-38
0.55460531 -4.5473118 -1.085762 2.3509886e-38
0.56927639 -4.4723902 -1.068571 2.3509886e-38
0.80920392 -4.4716249 -1.0770508 2.3509886e-38
0.58817828 -4.4351506 -1.0603955 2.3509886e-38
0.7767942 -4.4247775 -1.0647715 2.3509886e-38
0.75201505 -4.4195409 -1.0625483 2.3509886e-38
0.60900444 -4.4145002 -1.0562069 2.3509886e-38
0.63202363 -4.4104557 -1.0560175 2.3509886e-38
0.72693878 -4.4119 -1.0597805 2.3509886e-38
0.65251255 -4.389442 -1.0517906 2.3509886e-38
0.67609066 -4.3897104 -1.0526897 2.3509886e-38
0.69873112 -4.3838391 -1.0521457 2.3509886e-38
0.57833338 -4.5435443 -0.97357714 2.3509886e-38
0.59481072 -4.4851618 -0.96172214 2.3509886e-38
0.78655905 -4.4804001 -0.96692723 2.3509886e-38
0.614815 -4.4566193 -0.95627987 2.3509886e-38
0.70782393 -4.4408875 -0.95587921 2.3509886e-38
0.63465291 -4.4288034 -0.95101207 2.3509886e-38
0.68319833 -4.4358592 -0.95401281 2.3509886e-38
0.72930527 -4.4262624 -0.95354104 2.3509886e-38
0.75308317 -4.425818 -0.95428264 2.3509886e-38
0.65386993 -4.3985734 -0.94524366 2.3509886e-38
0.60349423 -4.5506401 -0.86462188 2.3509886e-38
0.61779368 -4.4782109 -0.85146403 2.3509886e-38
0.63915706 -4.4602346 -0.8486715 2.3509886e-38
0.76179731 -4.4770308 -0.85537356 2.3509886e-38
0.68637741 -4.4565001 -0.84928352 2.3509886e-38
0.73233938 -4.4446769 -0.84844697 2.3509886e-38
0.65715432 -4.4206672 -0.84178668 2.3509886e-38
0.70732516 -4.4377584 -0.84640682 2.3509886e-38
0.64907563 -4.5294495 -0.75202572 2.3509886e-38
0.71918064 -4.5121393 -0.75093681 2.3509886e-38
0.69306535 -4.4999232 -0.74828887 2.3509886e-38
0.66398829 -4.4666395 -0.74216509 2.3509886e-38
