# .PCD v0.7 - Point Cloud Data file format
VERSION 0.7
FIELDS x y z rgb
SIZE 4 4 4 4
TYPE F F F F
COUNT 1 1 1 1
WIDTH 359
HEIGHT 1
VIEWPOINT 0 0 0 1 0 0 0
POINTS 359
DATA ascii
0.55896246 0.91716695 -0.60348171 2.3509886e-38
0.62019295 0.90708995 -0.61741489 2.3509886e-38
0.69885278 0.91002685 -0.61010438 2.3509886e-38
0.55373365 0.93856388 -0.61229879 2.3509886e-38
0.77492392 0.92683673 -0.61075616 2.3509886e-38
0.85908604 0.94689846 -0.61567563 2.3509886e-38
1.0437092 0.99669355 -0.60280156 2.3509886e-38
0.53479421 1.0189897 -0.61503226 2.3509886e-38
1.0563272 1.008857 -0.61012459 2.3509886e-38
0.51670074 1.1093588 -0.61470175 2.3509886e-38
0.52240217 1.0877385 -0.61317372 2.3509886e-38
0.50871152 1.1783221 -0.61277431 2.3509886e-38
0.49989128 1.2577994 -0.6167652 2.3509886e-38
0.57335997 0.89222598 -0.58529299 2.3509886e-38
0.62028044 0.89046776 -0.5770328 2.3509886e-38
0.66219586 0.90129155 -0.57942992 2.3509886e-38
0.70094949 0.91005248 -0.57699823 2.3509886e-38
0.72824901 0.91766298 -0.58844388 2.3509886e-38
0.54988754 0.94135499 -0.57968009 2.3509886e-38
0.74678797 0.92174405 -0.57865244 2.3509886e-38
0.78065741 0.93004048 -0.57476074 2.3509886e-38
0.82517797 0.94633371 -0.58008552 2.3509886e-38
0.85103989 0.953547 -0.5809024 2.3509886e-38
0.8734448 0.96158791 -0.57837951 2.3509886e-38
0.89956182 0.96734279 -0.5881412 2.3509886e-38
0.93864834 0.97198212 -0.57497293 2.3509886e-38
0.9809078 0.98120147 -0.57952201 2.3509886e-38
1.0165989 0.99089384 -0.59297323 2.3509886e-38
1.0456165 0.99294752 -0.56306803 2.3509886e-38
0.81332541 0.95205766 -0.55750036 2.3509886e-38
1.0161523 0.97613835 -0.55021596 2.3509886e-38
0.53835601 1.1736374 -0.53937191 2.3509886e-38
0.62414414 1.1880027 -0.52402669 2.3509886e-38
0.58309656 1.2286056 -0.53105903 2.3509886e-38
0.6131478 1.213897 -0.53105897 2.3509886e-38
0.50444913 1.2707134 -0.53387797 2.3509886e-38
0.53936195 1.2512648 -0.53208959 2.3509886e-38
0.56448936 1.240376 -0.53215021 2.3509886e-38
0.48647901 1.3021888 -0.54281986 2.3509886e-38
0.62821555 1.3088686 -0.5284211 2.3509886e-38
0.48208255 1.3372245 -0.55506575 2.3509886e-38
0.57962006 1.3447704 -0.53300416 2.3509886e-38
0.61434889 1.3291301 -0.5329529 2.3509886e-38
0.55957162 1.3691407 -0.53833973 2.3509886e-38
0.56745362 1.3760629 -0.54175991 2.3509886e-38
0.56944895 1.4158353 -0.55544072 2.3509886e-38
0.66148257 1.0302659 -0.51141346 2.3509886e-38
0.6983133 1.0215201 -0.49445727 2.3509886e-38
0.73754525 1.0236647 -0.49268448 2.3509886e-38
0.77981985 1.0339177 -0.50570118 2.3509886e-38
0.81456208 1.0390348 -0.48053828 2.3509886e-38
0.631715 1.0635605 -0.4830454 2.3509886e-38
0.64971858 1.0520077 -0.5164668 2.3509886e-38
0.82058573 1.0432101 -0.50062579 2.3509886e-38
0.86026353 1.049336 -0.49387708 2.3509886e-38
0.63015169 1.1007687 -0.49529132 2.3509886e-38
0.62620085 1.1392971 -0.50765842 2.3509886e-38
0.62058836 1.1772199 -0.49607012 2.3509886e-38
0.61394393 1.219982 -0.49710181 2.3509886e-38
0.61584759 1.2658871 -0.50002652 2.3509886e-38
0.63487893 1.0243796 -0.4618389 2.3509886e-38
0.66356879 1.008386 -0.46779811 2.3509886e-38
0.69728804 1.0141877 -0.45682856 2.3509886e-38
0.74039876 1.0244539 -0.46006593 2.3509886e-38
0.77795273 1.0314314 -0.47022885 2.3509886e-38
0.80347669 1.0369521 -0.47746012 2.3509886e-38
0.63084257 1.0621334 -0.45426077 2.3509886e-38
0.78645831 1.049107 -0.44304189 2.3509886e-38
0.81893271 1.0569072 -0.45179176 2.3509886e-38
0.85588986 1.0626562 -0.4610599 2.3509886e-38
0.90091008 1.0742389 -0.46850902 2.3509886e-38
0.62566793 1.0966303 -0.45953828 2.3509886e-38
0.62583959 1.1426022 -0.46391091 2.3509886e-38
0.62676662 1.1765183 -0.45615554 2.3509886e-38
0.62435097 1.2186301 -0.46267572 2.3509886e-38
0.62143862 1.2601207 -0.46740103 2.3509886e-38
0.62555295 1.2986423 -0.44979089 2.3509886e-38
0.63613099 1.0134171 -0.43550563 2.3509886e-38
0.65813398 1.0190738 -0.42283291 2.3509886e-38
0.69977754 1.0332384 -0.42167407 2.3509886e-38
0.72552145 1.0382698 -0.4279964 2.3509886e-38
0.63793886 1.066763 -0.41999346 2.3509886e-38
0.6443283 1.0614156 -0.41956666 2.3509886e-38
0.74935758 1.0432215 -0.42568597 2.3509886e-38
0.77834356 1.0482069 -0.414855 2.3509886e-38
0.82159841 1.0571541 -0.41779062 2.3509886e-38
0.85959554 1.0641124 -0.42685452 2.3509886e-38
0.89557695 1.0712451 -0.42976913 2.3509886e-38
0.63659817 1.1063246 -0.42299283 2.3509886e-38
0.64218807 1.0884811 -0.42703608 2.3509886e-38
0.92752159 1.0888627 -0.41014844 2.3509886e-38
0.63461399 1.1375464 -0.41763511 2.3509886e-38
0.63315916 1.1804003 -0.41797787 2.3509886e-38
0.62816966 1.2173194 -0.4274503 2.3509886e-38
0.6229524 1.255728 -0.43033689 2.3509886e-38
0.61713612 1.2903742 -0.41014841 2.3509886e-38
0.63532835 1.3392047 -0.42503282 2.3509886e-38
0.65861851 1.0291473 -0.38127965 2.3509886e-38
0.6983124 1.0310284 -0.38857764 2.3509886e-38
0.73517454 1.0367295 -0.3790389 2.3509886e-38
0.64545125 1.0621419 -0.38783297 2.3509886e-38
0.75097847 1.0421903 -0.38455099 2.3509886e-38
0.77795595 1.0441195 -0.3733705 2.3509886e-38
0.8178857 1.0523853 -0.38219091 2.3509886e-38
0.85841548 1.059489 -0.3910113 2.3509886e-38
0.89243406 1.0656339 -0.37685061 2.3509886e-38
0.63615167 1.100121 -0.37512356 2.3509886e-38
0.6415115 1.0834446 -0.39289683 2.3509886e-38
0.94260693 1.1032614 -0.37987718 2.3509886e-38
0.62837231 1.1354033 -0.37211046 2.3509886e-38
0.62303495 1.1736492 -0.38102272 2.3509886e-38
0.61764312 1.2253851 -0.38585746 2.3509886e-38
0.60951698 1.2512316 -0.37303904 2.3509886e-38
0.63644546 1.0304941 -0.34730309 2.3509886e-38
0.65971148 1.0220397 -0.34412691 2.3509886e-38
0.70084578 1.0250903 -0.3406027 2.3509886e-38
0.74382031 1.0355618 -0.33378544 2.3509886e-38
0.63536727 1.0645595 -0.33866417 2.3509886e-38
0.6409651 1.0480237 -0.35226458 2.3509886e-38
0.78149933 1.0425363 -0.34109351 2.3509886e-38
0.81905377 1.0475482 -0.3481122 2.3509886e-38
0.86178094 1.0574267 -0.34014538 2.3509886e-38
0.89739543 1.0629032 -0.32960755 2.3509886e-38
0.62960362 1.099816 -0.33175942 2.3509886e-38
0.62687963 1.1405345 -0.34070763 2.3509886e-38
0.62209874 1.180096 -0.34923375 2.3509886e-38
0.61400169 1.2200785 -0.34057933 2.3509886e-38
0.60679948 1.2413733 -0.32739419 2.3509886e-38
0.61393005 1.2940993 -0.33938327 2.3509886e-38
0.63263661 1.0276883 -0.29599366 2.3509886e-38
0.65677083 1.0164213 -0.30178452 2.3509886e-38
0.70195073 1.0235307 -0.29407838 2.3509886e-38
0.7408796 1.0314517 -0.30091283 2.3509886e-38
0.76914638 1.0353506 -0.30560634 2.3509886e-38
0.62589437 1.0644132 -0.29257974 2.3509886e-38
0.79379117 1.047677 -0.29854611 2.3509886e-38
0.82102066 1.0532548 -0.30005679 2.3509886e-38
0.86030644 1.0662749 -0.29591057 2.3509886e-38
0.896119 1.0739849 -0.29731375 2.3509886e-38
0.62191862 1.1047026 -0.3003858 2.3509886e-38
0.92823684 1.0929916 -0.30479857 2.3509886e-38
0.61728162 1.1427666 -0.30775052 2.3509886e-38
0.6192286 1.1812446 -0.30296171 2.3509886e-38
0.62213671 1.2186455 -0.29083878 2.3509886e-38
0.61482042 1.2483888 -0.29578903 2.3509886e-38
0.63055712 1.3291475 -0.3126992 2.3509886e-38
0.63940167 1.0352806 -0.25864217 2.3509886e-38
0.65906006 1.0298026 -0.25988963 2.3509886e-38
0.70057333 1.0343968 -0.26555523 2.3509886e-38
0.7236346 1.0384642 -0.26903775 2.3509886e-38
0.63923711 1.068952 -0.26474091 2.3509886e-38
0.64122814 1.0517527 -0.26183012 2.3509886e-38
0.74612558 1.0439527 -0.2586644 2.3509886e-38
0.77799976 1.0485762 -0.26058155 2.3509886e-38
0.81873858 1.0534718 -0.25138369 2.3509886e-38
0.85836214 1.0625608 -0.25736144 2.3509886e-38
0.89025652 1.070099 -0.26226795 2.3509886e-38
0.63530129 1.1027641 -0.26364884 2.3509886e-38
0.91535789 1.0843316 -0.26735964 2.3509886e-38
0.63065761 1.1417072 -0.26272514 2.3509886e-38
0.62602144 1.1792995 -0.25156 2.3509886e-38
0.61943573 1.2221396 -0.25815493 2.3509886e-38
0.61434871 1.2518404 -0.26273084 2.3509886e-38
0.63928562 1.0350927 -0.2292183 2.3509886e-38
0.65961272 1.0267724 -0.22727002 2.3509886e-38
0.69859433 1.0250647 -0.21881607 2.3509886e-38
0.73718137 1.0293872 -0.21410508 2.3509886e-38
0.77654207 1.0358849 -0.21270216 2.3509886e-38
0.63115221 1.0634466 -0.21213019 2.3509886e-38
0.64054906 1.0573434 -0.23292136 2.3509886e-38
0.73377591 1.0409656 -0.23995712 2.3509886e-38
0.79665297 1.040467 -0.21529606 2.3509886e-38
0.81956691 1.045163 -0.21821423 2.3509886e-38
0.85904902 1.0540156 -0.2234021 2.3509886e-38
0.89551038 1.0622541 -0.2282657 2.3509886e-38
0.63000393 1.0966876 -0.22304614 2.3509886e-38
0.61994404 1.1397465 -0.21316533 2.3509886e-38
0.61679602 1.1825144 -0.2191221 2.3509886e-38
0.60913193 1.2191457 -0.22391161 2.3509886e-38
0.60285938 1.2605228 -0.22956266 2.3509886e-38
0.63287717 1.0247225 -0.19787969 2.3509886e-38
0.6586073 1.0233525 -0.18377727 2.3509886e-38
0.69995987 1.0334764 -0.17542771 2.3509886e-38
0.72467518 1.0399575 -0.17814159 2.3509886e-38
0.63831288 1.0640267 -0.17438391 2.3509886e-38
0.64251155 1.0566083 -0.1737994 2.3509886e-38
0.74300915 1.0439829 -0.18009 2.3509886e-38
0.78078282 1.0510867 -0.18402165 2.3509886e-38
0.82041806 1.0588385 -0.18825483 2.3509886e-38
0.86167556 1.0660535 -0.18291751 2.3509886e-38
0.89630377 1.0735457 -0.18339743 2.3509886e-38
0.92243332 1.0796494 -0.19957423 2.3509886e-38
0.63869011 1.1063064 -0.17953332 2.3509886e-38
0.64042163 1.0927045 -0.1780024 2.3509886e-38
0.91362602 1.08228 -0.16563091 2.3509886e-38
0.92840648 1.0931913 -0.16772163 2.3509886e-38
0.63594049 1.1412557 -0.18361573 2.3509886e-38
0.62930351 1.1813804 -0.18812229 2.3509886e-38
0.6238839 1.2253515 -0.18105572 2.3509886e-38
0.61650968 1.251897 -0.18150209 2.3509886e-38
0.66028315 1.0316721 -0.14324287 2.3509886e-38
0.6948114 1.0336655 -0.14565298 2.3509886e-38
0.7326594 1.0389862 -0.14867291 2.3509886e-38
0.63869148 1.0646551 -0.14518838 2.3509886e-38
0.64411706 1.0497355 -0.14402688 2.3509886e-38
0.71329486 1.040347 -0.14751139 2.3509886e-38
0.74720806 1.0447028 -0.14148751 2.3509886e-38
0.78007287 1.0501298 -0.13972977 2.3509886e-38
0.81930584 1.0573869 -0.14060609 2.3509886e-38
0.85658884 1.0653864 -0.13717893 2.3509886e-38
0.89308172 1.0735075 -0.13028094 2.3509886e-38
0.63654566 1.1008059 -0.14870609 2.3509886e-38
0.64336479 1.0826886 -0.14727908 2.3509886e-38
0.91330558 1.0819005 -0.13209234 2.3509886e-38
0.63286328 1.1396086 -0.13704301 2.3509886e-38
0.62708664 1.1772112 -0.13759299 2.3509886e-38
0.62310314 1.2176367 -0.1383376 2.3509886e-38
0.61571383 1.2594528 -0.13079186 2.3509886e-38
0.63432914 1.0237926 -0.084219314 2.3509886e-38
0.66022909 1.0218796 -0.09940552 2.3509886e-38
0.70012236 1.0264165 -0.10148225 2.3509886e-38
0.73813963 1.0282936 -0.094457671 2.3509886e-38
0.77951461 1.0335226 -0.090523973 2.3509886e-38
0.80886424 1.0377944 -0.092008784 2.3509886e-38
0.63186789 1.0614996 -0.092831619 2.3509886e-38
0.64188087 1.0555737 -0.11526033 2.3509886e-38
0.71124792 1.0406982 -0.1176012 2.3509886e-38
0.73717189 1.0420476 -0.11908747 2.3509886e-38
0.83043867 1.0432378 -0.093241155 2.3509886e-38
0.86101395 1.0502675 -0.094968461 2.3509886e-38
0.89531636 1.0605595 -0.097054504 2.3509886e-38
0.63089216 1.1002821 -0.10220788 2.3509886e-38
0.64132661 1.0944272 -0.11834434 2.3509886e-38
0.62081361 1.1374261 -0.090613656 2.3509886e-38
0.61743206 1.1795765 -0.093101643 2.3509886e-38
0.61110574 1.2186857 -0.095333852 2.3509886e-38
0.60631955 1.2448063 -0.096821986 2.3509886e-38
0.63615674 1.030066 -0.056459118 2.3509886e-38
0.65915209 1.0168961 -0.056515027 2.3509886e-38
0.70168144 1.0231283 -0.057856623 2.3509886e-38
0.74258125 1.0338274 -0.059360601 2.3509886e-38
0.76923394 1.0387816 -0.06027896 2.3509886e-38
0.63287836 1.0620366 -0.057654757 2.3509886e-38
0.78467351 1.0417001 -0.060819328 2.3509886e-38
0.81866419 1.0470479 -0.06198258 2.3509886e-38
0.86078358 1.0561479 -0.063539803 2.3509886e-38
0.89299947 1.0640951 -0.064782023 2.3509886e-38
0.62993503 1.1003875 -0.059129898 2.3509886e-38
0.62629098 1.1394631 -0.060636103 2.3509886e-38
0.62124652 1.1784807 -0.062126771 2.3509886e-38
0.61587507 1.2194693 -0.063710608 2.3509886e-38
0.60915297 1.250504 -0.064867429 2.3509886e-38
0.63669497 1.0309048 0.028131485 2.3509886e-38
0.65744239 1.0258734 0.013453419 2.3509886e-38
0.69893605 1.0304819 0.013477734 2.3509886e-38
0.73380297 1.036459 0.025816208 2.3509886e-38
0.63452399 1.0597488 0.01541911 2.3509886e-38
0.77975363 1.046537 0.015106914 2.3509886e-38
0.81944513 1.0543823 0.015478285 2.3509886e-38
0.85839713 1.0609314 0.017036725 2.3509886e-38
0.89298177 1.0702357 0.012098628 2.3509886e-38
0.63222259 1.1006583 0.014696304 2.3509886e-38
0.62758988 1.1403437 0.016272554 2.3509886e-38
0.6227482 1.1813768 0.015504812 2.3509886e-38
0.61865753 1.222152 0.014441336 2.3509886e-38
0.61106449 1.2544872 0.016210418 2.3509886e-38
0.63515943 1.0318592 0.056505702 2.3509886e-38
0.65848935 1.0223196 0.056710672 2.3509886e-38
0.69944239 1.0295031 0.058042955 2.3509886e-38
0.73603892 1.037153 0.059310019 2.3509886e-38
0.63150638 1.0597534 0.057530537 2.3509886e-38
0.7442227 1.0404997 0.059657846 2.3509886e-38
0.78200322 1.0463721 0.060919482 2.3509886e-38
0.82445765 1.0544734 0.062421799 2.3509886e-38
0.86238641 1.0612913 0.063772716 2.3509886e-38
0.89749837 1.0724849 0.06521681 2.3509886e-38
0.62769651 1.1001266 0.059067789 2.3509886e-38
0.62230259 1.1401292 0.060573991 2.3509886e-38
0.61937082 1.1832267 0.062282044 2.3509886e-38
0.61342818 1.2233106 0.063819312 2.3509886e-38
0.60809785 1.2576786 0.065146931 2.3509886e-38
0.63160127 1.0245494 0.10021602 2.3509886e-38
0.65834486 1.0167645 0.098838635 2.3509886e-38
0.6996401 1.0233328 0.10118751 2.3509886e-38
0.74050105 1.0326085 0.10271742 2.3509886e-38
0.7724368 1.0365608 0.096401237 2.3509886e-38
0.62669867 1.0622053 0.10063294 2.3509886e-38
0.78742605 1.0410496 0.091276348 2.3509886e-38
0.82134581 1.0474397 0.093078397 2.3509886e-38
0.85998064 1.0551617 0.095187686 2.3509886e-38
0.8922258 1.0631613 0.097054504 2.3509886e-38
0.62271178 1.1004268 0.1020444 2.3509886e-38
0.61884165 1.1343089 0.098905019 2.3509886e-38
0.61590546 1.1766225 0.092869125 2.3509886e-38
0.61185485 1.22017 0.095450111 2.3509886e-38
0.60619086 1.2537329 0.097380042 2.3509886e-38
0.65627283 1.0320321 0.14302798 2.3509886e-38
0.69044459 1.0372059 0.14571106 2.3509886e-38
0.77343529 1.0378853 0.12075952 2.3509886e-38
0.63615763 1.0606432 0.14463665 2.3509886e-38
0.70933586 1.0424495 0.14745331 2.3509886e-38
0.74078757 1.0472012 0.15000863 2.3509886e-38
0.78268874 1.0492457 0.14380653 2.3509886e-38
0.81899697 1.0538337 0.14037724 2.3509886e-38
0.85640967 1.0570226 0.13408497 2.3509886e-38
0.89181 1.0626807 0.12942943 2.3509886e-38
0.63211137 1.1041819 0.14878905 2.3509886e-38
0.62149233 1.1432853 0.13820659 2.3509886e-38
0.61745077 1.1806855 0.14153443 2.3509886e-38
0.61029571 1.2156883 0.13762026 2.3509886e-38
0.59747314 1.2594099 0.13004872 2.3509886e-38
0.60327196 1.2522188 0.12967715 2.3509886e-38
0.6375128 1.0335225 0.18218555 2.3509886e-38
0.65614253 1.0274743 0.1802067 2.3509886e-38
0.70023203 1.0338899 0.17549728 2.3509886e-38
0.72853178 1.0396788 0.17841993 2.3509886e-38
0.63441563 1.0612262 0.17376758 2.3509886e-38
0.74160242 1.0429523 0.17985807 2.3509886e-38
0.77961361 1.0494881 0.1837433 2.3509886e-38
0.82051277 1.0557729 0.18792345 2.3509886e-38
0.86336935 1.0667622 0.18107547 2.3509886e-38
0.89149714 1.0729208 0.1772466 2.3509886e-38
0.62973535 1.100027 0.17814158 2.3509886e-38
0.90969312 1.0841303 0.18213901 2.3509886e-38
0.62642944 1.1397275 0.1827807 2.3509886e-38
0.62125993 1.1784981 0.18723422 2.3509886e-38
0.61686921 1.2236035 0.18448162 2.3509886e-38
0.61194175 1.2610141 0.18044418 2.3509886e-38
0.60877776 1.2832389 0.16609551 2.3509886e-38
0.62967509 1.027009 0.22330499 2.3509886e-38
0.66091251 1.0228437 0.21763732 2.3509886e-38
0.69845837 1.0312644 0.21963502 2.3509886e-38
0.73202008 1.0348396 0.23368625 2.3509886e-38
0.62540013 1.0581665 0.21920533 2.3509886e-38
0.71979833 1.040297 0.20783852 2.3509886e-38
0.73850483 1.0428349 0.20994608 2.3509886e-38
0.77891111 1.0485609 0.21460706 2.3509886e-38
0.82073164 1.0560495 0.21974279 2.3509886e-38
0.8607893 1.0624104 0.22465274 2.3509886e-38
0.88797718 1.0672913 0.22810358 2.3509886e-38
0.62490857 1.0986315 0.21932679 2.3509886e-38
0.91590631 1.0915349 0.23410206 2.3509886e-38
0.62245661 1.1404173 0.2134587 2.3509886e-38
0.61989975 1.1799989 0.2189924 2.3509886e-38
0.61578804 1.2193319 0.22442885 2.3509886e-38
0.60890758 1.2594198 0.22983284 2.3509886e-38
0.75115031 1.0373992 0.24131493 2.3509886e-38
0.76979679 1.0391818 0.24366018 2.3509886e-38
0.75704861 1.041224 0.24254926 2.3509886e-38
0.78189629 1.044364 0.24580793 2.3509886e-38
0.81562901 1.0494878 0.25043145 2.3509886e-38
0.85941911 1.0575765 0.25675967 2.3509886e-38
0.89359367 1.0679619 0.26236054 2.3509886e-38
0.61606479 1.1169204 0.24032745 2.3509886e-38
0.61304462 1.1428299 0.24434786 2.3509886e-38
0.60697693 1.1805327 0.25010344 2.3509886e-38
0.60320783 1.2204314 0.25649738 2.3509886e-38
0.59688455 1.2602487 0.26273084 2.3509886e-38
0.60122627 1.2571082 0.2625457 2.3509886e-38
