# .PCD v0.7 - Point Cloud Data file format
VERSION 0.7
FIELDS x y z rgb
SIZE 4 4 4 4
TYPE F F F F
COUNT 1 1 1 1
WIDTH 359
HEIGHT 1
VIEWPOINT 0 0 0 1 0 0 0
POINTS 359
DATA ascii
-0.1479581 -0.17481327 -0.41249374 2.3418052e-38
-0.086727619 -0.18489027 -0.42642692 2.3418052e-38
-0.0080677867 -0.18195337 -0.41911641 2.3418052e-38
-0.15318692 -0.15341634 -0.42131081 2.3418052e-38
0.068003356 -0.16514349 -0.41976818 2.3418052e-38
0.15216547 -0.14508176 -0.42468765 2.3418052e-38
0.33678859 -0.095286667 -0.41181359 2.3418052e-38
-0.17212635 -0.072990537 -0.42404428 2.3418052e-38
0.34940666 -0.083123207 -0.41913661 2.3418052e-38
-0.19021982 0.017378569 -0.42371377 2.3418052e-38
-0.1845184 -0.0042417049 -0.42218575 2.3418052e-38
-0.19820905 0.086341858 -0.42178634 2.3418052e-38
-0.20702928 0.16581917 -0.42577723 2.3418052e-38
-0.1335606 -0.19975424 -0.39430502 2.3418052e-38
-0.08664012 -0.20151246 -0.38604483 2.3418052e-38
-0.044724703 -0.19068867 -0.38844195 2.3418052e-38
-0.0059710741 -0.18192774 -0.38601026 2.3418052e-38
0.021328449 -0.17431724 -0.3974559 2.3418052e-38
-0.15703303 -0.15062523 -0.38869211 2.3418052e-38
0.039867401 -0.17023617 -0.38766447 2.3418052e-38
0.073736846 -0.16193974 -0.38377276 2.3418052e-38
0.1182574 -0.14564651 -0.38909754 2.3418052e-38
0.14411932 -0.13843322 -0.38991442 2.3418052e-38
0.16652423 -0.13039231 -0.38739154 2.3418052e-38
0.19264126 -0.12463742 -0.39715323 2.3418052e-38
0.23172778 -0.1199981 -0.38398495 2.3418052e-38
0.27398723 -0.11077875 -0.38853404 2.3418052e-38
0.30967838 -0.10108638 -0.40198526 2.3418052e-38
0.33869594 -0.0990327 -0.37208006 2.3418052e-38
0.10640484 -0.13992256 -0.36651239 2.3418052e-38
0.3092317 -0.11584187 -0.35922799 2.3418052e-38
-0.16856456 0.081657171 -0.34838393 2.3418052e-38
-0.082776427 0.096022487 -0.33303872 2.3418052e-38
-0.123824 0.13662541 -0.34007105 2.3418052e-38
-0.093772769 0.12191677 -0.34007099 2.3418052e-38
-0.20247144 0.17873323 -0.34288999 2.3418052e-38
-0.16755861 0.15928459 -0.34110162 2.3418052e-38
-0.1424312 0.14839578 -0.34116223 2.3418052e-38
-0.22044155 0.21020854 -0.35183188 2.3418052e-38
-0.078705013 0.21688843 -0.33743313 2.3418052e-38
-0.22483802 0.24524426 -0.36407778 2.3418052e-38
-0.1273005 0.25279021 -0.34201619 2.3418052e-38
-0.092571676 0.23714983 -0.34196493 2.3418052e-38
-0.14734894 0.27716053 -0.34735176 2.3418052e-38
-0.13946694 0.28408265 -0.35077193 2.3418052e-38
-0.13747162 0.32385504 -0.36445275 2.3418052e-38
-0.045437992 -0.061714292 -0.32042548 2.3418052e-38
-0.0086072683 -0.070460081 -0.3034693 2.3418052e-38
0.030624688 -0.068315506 -0.30169651 2.3418052e-38
0.072899282 -0.058062553 -0.31471321 2.3418052e-38
0.10764152 -0.052945375 -0.2895503 2.3418052e-38
-0.075205564 -0.028419733 -0.29205742 2.3418052e-38
-0.057201982 -0.039972544 -0.32547882 2.3418052e-38
0.11366516 -0.04877007 -0.30963781 2.3418052e-38
0.15334296 -0.042644262 -0.30288911 2.3418052e-38
-0.076768875 0.0087884665 -0.30430335 2.3418052e-38
-0.080719709 0.047316909 -0.31667045 2.3418052e-38
-0.086332202 0.085239649 -0.30508214 2.3418052e-38
-0.09297663 0.12800181 -0.30611384 2.3418052e-38
-0.091072977 0.17390692 -0.30903855 2.3418052e-38
-0.072041631 -0.067600608 -0.27085093 2.3418052e-38
-0.043351769 -0.083594203 -0.27681014 2.3418052e-38
-0.0096325278 -0.077792525 -0.26584059 2.3418052e-38
0.0334782 -0.06752634 -0.26907796 2.3418052e-38
0.071032166 -0.060548782 -0.27924088 2.3418052e-38
0.096556127 -0.055028081 -0.28647214 2.3418052e-38
-0.076077998 -0.029846787 -0.26327279 2.3418052e-38
0.079537749 -0.042873263 -0.25205392 2.3418052e-38
0.11201215 -0.035073042 -0.26080379 2.3418052e-38
0.14896929 -0.029324055 -0.27007192 2.3418052e-38
0.19398952 -0.017741323 -0.27752104 2.3418052e-38
-0.081252635 0.004650116 -0.26855031 2.3418052e-38
-0.081080973 0.050621986 -0.27292293 2.3418052e-38
-0.080153942 0.084538102 -0.26516756 2.3418052e-38
-0.082569599 0.12664986 -0.27168775 2.3418052e-38
-0.085481942 0.16814053 -0.27641305 2.3418052e-38
-0.081367612 0.20666206 -0.25880292 2.3418052e-38
-0.070789576 -0.078563094 -0.24451765 2.3418052e-38
-0.048786581 -0.072906375 -0.23184493 2.3418052e-38
-0.0071430206 -0.058741808 -0.2306861 2.3418052e-38
0.018600881 -0.053710461 -0.23700842 2.3418052e-38
-0.068981707 -0.025217175 -0.22900549 2.3418052e-38
-0.062592268 -0.030564666 -0.22857869 2.3418052e-38
0.042437017 -0.048758745 -0.234698 2.3418052e-38
0.071422994 -0.043773293 -0.22386703 2.3418052e-38
0.11467785 -0.034826159 -0.22680265 2.3418052e-38
0.15267497 -0.027867794 -0.23586655 2.3418052e-38
0.18865639 -0.020735145 -0.23878115 2.3418052e-38
-0.070322394 0.014344335 -0.23200485 2.3418052e-38
-0.064732492 -0.0034991503 -0.2360481 2.3418052e-38
0.22060102 -0.0031175613 -0.21916047 2.3418052e-38
-0.072306573 0.045566201 -0.22664714 2.3418052e-38
-0.073761404 0.088420033 -0.2269899 2.3418052e-38
-0.078750908 0.12533915 -0.23646232 2.3418052e-38
-0.083968163 0.16374779 -0.23934892 2.3418052e-38
-0.089784443 0.19839394 -0.21916044 2.3418052e-38
-0.071592212 0.24722445 -0.23404485 2.3418052e-38
-0.048302054 -0.062832952 -0.19029167 2.3418052e-38
-0.0086081624 -0.060951829 -0.19758967 2.3418052e-38
0.028253973 -0.055250764 -0.18805093 2.3418052e-38
-0.061469316 -0.029838324 -0.196845 2.3418052e-38
0.044057906 -0.049789906 -0.19356301 2.3418052e-38
0.071035385 -0.047860742 -0.18238252 2.3418052e-38
0.11096513 -0.039594889 -0.19120294 2.3418052e-38
0.15149492 -0.032491207 -0.20002332 2.3418052e-38
0.1855135 -0.026346326 -0.18586263 2.3418052e-38
-0.070768893 0.0081408024 -0.18413559 2.3418052e-38
-0.065409064 -0.0085356236 -0.20190886 2.3418052e-38
0.23568636 0.011281133 -0.18888921 2.3418052e-38
-0.078548253 0.043423057 -0.18112248 2.3418052e-38
-0.08388561 0.081668973 -0.19003475 2.3418052e-38
-0.089277446 0.13340485 -0.19486949 2.3418052e-38
-0.097403586 0.15925133 -0.18205106 2.3418052e-38
-0.070475101 -0.061486125 -0.15631512 2.3418052e-38
-0.047209084 -0.069940567 -0.15313894 2.3418052e-38
-0.0060747862 -0.066889882 -0.14961472 2.3418052e-38
0.036899745 -0.056418419 -0.14279747 2.3418052e-38
-0.07155329 -0.027420759 -0.1476762 2.3418052e-38
-0.06595546 -0.043956518 -0.16127661 2.3418052e-38
0.074578762 -0.04944396 -0.15010554 2.3418052e-38
0.1121332 -0.044432044 -0.15712422 2.3418052e-38
0.15486038 -0.034553528 -0.1491574 2.3418052e-38
0.19047487 -0.029077053 -0.13861957 2.3418052e-38
-0.07731694 0.0078357458 -0.14077145 2.3418052e-38
-0.080040932 0.048554301 -0.14971966 2.3418052e-38
-0.08482182 0.088115811 -0.15824577 2.3418052e-38
-0.092918873 0.12809825 -0.14959136 2.3418052e-38
-0.10012108 0.14939308 -0.13640621 2.3418052e-38
-0.092990518 0.20211911 -0.1483953 2.3418052e-38
-0.074283957 -0.064291954 -0.10500568 2.3418052e-38
-0.050149739 -0.075558901 -0.11079654 2.3418052e-38
-0.0049698353 -0.068449497 -0.10309041 2.3418052e-38
0.033959031 -0.060528517 -0.10992485 2.3418052e-38
0.062225819 -0.056629658 -0.11461836 2.3418052e-38
-0.081026196 -0.027567029 -0.10159177 2.3418052e-38
0.086870611 -0.044303179 -0.10755813 2.3418052e-38
0.1141001 -0.038725376 -0.10906881 2.3418052e-38
0.15338588 -0.025705338 -0.10492259 2.3418052e-38
0.18919843 -0.017995358 -0.10632578 2.3418052e-38
-0.085001945 0.012722373 -0.10939783 2.3418052e-38
0.22131628 0.0010113716 -0.1138106 2.3418052e-38
-0.089638948 0.050786376 -0.11676255 2.3418052e-38
-0.087691963 0.089264393 -0.11197373 2.3418052e-38
-0.084783852 0.12666523 -0.099850804 2.3418052e-38
-0.092100143 0.15640855 -0.10480106 2.3418052e-38
-0.076363444 0.23716724 -0.12171122 2.3418052e-38
-0.06751889 -0.056699634 -0.067654192 2.3418052e-38
-0.047860503 -0.062177658 -0.068901658 2.3418052e-38
-0.006347239 -0.057583451 -0.074567258 2.3418052e-38
0.016714036 -0.05351603 -0.078049779 2.3418052e-38
-0.067683458 -0.023028255 -0.07375294 2.3418052e-38
-0.065692425 -0.040227532 -0.070842147 2.3418052e-38
0.039205015 -0.048027515 -0.067676425 2.3418052e-38
0.071079195 -0.043403983 -0.069593579 2.3418052e-38
0.11181802 -0.038508415 -0.060395718 2.3418052e-38
0.15144157 -0.029419422 -0.066373467 2.3418052e-38
0.18333596 -0.021881223 -0.071279973 2.3418052e-38
-0.071619272 0.010783911 -0.072660863 2.3418052e-38
0.20843732 -0.0076485872 -0.07637167 2.3418052e-38
-0.076262951 0.049726963 -0.07173717 2.3418052e-38
-0.080899119 0.087319255 -0.060572028 2.3418052e-38
-0.087484837 0.13015938 -0.067166954 2.3418052e-38
-0.092571855 0.15986013 -0.071742862 2.3418052e-38
-0.06763494 -0.056887507 -0.03823033 2.3418052e-38
-0.047307849 -0.065207839 -0.036282048 2.3418052e-38
-0.0083262324 -0.066915512 -0.027828097 2.3418052e-38
0.030260801 -0.062592983 -0.02311711 2.3418052e-38
0.069621503 -0.056095362 -0.021714181 2.3418052e-38
-0.075768352 -0.028533578 -0.021142215 2.3418052e-38
-0.0663715 -0.034636855 -0.041933388 2.3418052e-38
0.02685535 -0.051014662 -0.04896915 2.3418052e-38
0.089732409 -0.051513195 -0.024308085 2.3418052e-38
0.11264634 -0.046817183 -0.027226254 2.3418052e-38
0.15212846 -0.037964582 -0.032414123 2.3418052e-38
0.18858981 -0.029726148 -0.037277728 2.3418052e-38
-0.076916635 0.0047073364 -0.032058164 2.3418052e-38
-0.086976528 0.047766328 -0.022177354 2.3418052e-38
-0.090124547 0.09053421 -0.028134122 2.3418052e-38
-0.097788632 0.12716544 -0.032923639 2.3418052e-38
-0.10406119 0.16854262 -0.038574681 2.3418052e-38
-0.074043393 -0.067257762 -0.0068917125 2.3418052e-38
-0.04831326 -0.068627715 0.0072107017 2.3418052e-38
-0.00696069 -0.058503866 0.015560269 2.3418052e-38
0.017754614 -0.052022696 0.01284638 2.3418052e-38
-0.068607688 -0.027953506 0.016604066 2.3418052e-38
-0.064409018 -0.0353719 0.017188579 2.3418052e-38
0.036088586 -0.047997355 0.010897979 2.3418052e-38
0.073862255 -0.040893555 0.0069663227 2.3418052e-38
0.1134975 -0.033141732 0.0027331412 2.3418052e-38
0.154755 -0.025926709 0.0080704689 2.3418052e-38
0.18938321 -0.018434525 0.0075905472 2.3418052e-38
0.21551275 -0.01233077 -0.0085862577 2.3418052e-38
-0.06823045 0.014326215 0.011454657 2.3418052e-38
-0.066498935 0.00072431564 0.012985572 2.3418052e-38
0.20670545 -0.0097001791 0.025357068 2.3418052e-38
0.22148591 0.0012110472 0.023266345 2.3418052e-38
-0.070980072 0.049275517 0.0073722452 2.3418052e-38
-0.077617049 0.089400172 0.002865687 2.3418052e-38
-0.083036661 0.13337123 0.0099322498 2.3418052e-38
-0.090410888 0.15991676 0.0094858855 2.3418052e-38
-0.046637416 -0.060308099 0.047745109 2.3418052e-38
-0.01210916 -0.058314681 0.045334995 2.3418052e-38
0.025738835 -0.052994013 0.042315066 2.3418052e-38
-0.068229079 -0.027325153 0.045799598 2.3418052e-38
-0.062803507 -0.042244673 0.046961099 2.3418052e-38
0.0063742995 -0.051633239 0.043476582 2.3418052e-38
0.040287495 -0.047277451 0.049500465 2.3418052e-38
0.073152304 -0.041850448 0.051258206 2.3418052e-38
0.11238527 -0.034593344 0.050381884 2.3418052e-38
0.14966828 -0.026593804 0.053809047 2.3418052e-38
0.18616116 -0.018472672 0.060707033 2.3418052e-38
-0.070374906 0.0088256598 0.042281881 2.3418052e-38
-0.063555777 -0.0092916489 0.043708891 2.3418052e-38
0.20638502 -0.010079741 0.058895633 2.3418052e-38
-0.074057281 0.047628403 0.05394496 2.3418052e-38
-0.079833925 0.085230947 0.053394988 2.3418052e-38
-0.083817422 0.12565649 0.052650377 2.3418052e-38
-0.091206729 0.1674726 0.060196117 2.3418052e-38
-0.072591424 -0.068187594 0.10676866 2.3418052e-38
-0.046691477 -0.070100665 0.091582455 2.3418052e-38
-0.0067982078 -0.065563679 0.089505725 2.3418052e-38
0.031219065 -0.063686609 0.096530303 2.3418052e-38
0.072594047 -0.058457613 0.100464 2.3418052e-38
0.10194367 -0.054185867 0.09897919 2.3418052e-38
-0.075052679 -0.030480623 0.098156355 2.3418052e-38
-0.065039694 -0.036406517 0.075727642 2.3418052e-38
0.0043273568 -0.051282048 0.073386773 2.3418052e-38
0.030251324 -0.049932599 0.071900502 2.3418052e-38
0.12351811 -0.048742414 0.097746819 2.3418052e-38
0.15409338 -0.041712761 0.096019514 2.3418052e-38
0.1883958 -0.031420708 0.093933471 2.3418052e-38
-0.076028407 0.0083018541 0.088780098 2.3418052e-38
-0.065593958 0.0024470091 0.072643638 2.3418052e-38
-0.086106956 0.045445919 0.10037432 2.3418052e-38
-0.089488506 0.087596297 0.097886331 2.3418052e-38
-0.095814824 0.12670553 0.095654123 2.3418052e-38
-0.10060102 0.15282607 0.094165988 2.3418052e-38
-0.070763826 -0.061914206 0.13452886 2.3418052e-38
-0.047768474 -0.07508409 0.13447295 2.3418052e-38
-0.0052391291 -0.068851948 0.13313136 2.3418052e-38
0.035660684 -0.058152795 0.13162738 2.3418052e-38
0.062313378 -0.053198576 0.13070902 2.3418052e-38
-0.074042201 -0.029943585 0.13333322 2.3418052e-38
0.077752948 -0.050280094 0.13016865 2.3418052e-38
0.11174363 -0.044932365 0.1290054 2.3418052e-38
0.15386301 -0.035832286 0.12744817 2.3418052e-38
0.18607891 -0.027885079 0.12620595 2.3418052e-38
-0.076985538 0.0084072351 0.13185808 2.3418052e-38
-0.080629587 0.047482848 0.13035187 2.3418052e-38
-0.085674047 0.086500525 0.1288612 2.3418052e-38
-0.091045499 0.12748909 0.12727737 2.3418052e-38
-0.097767591 0.1585238 0.12612054 2.3418052e-38
-0.070225596 -0.061075449 0.21911946 2.3418052e-38
-0.049478173 -0.066106796 0.2044414 2.3418052e-38
-0.007984519 -0.061498284 0.2044657 2.3418052e-38
0.02688241 -0.05552125 0.21680418 2.3418052e-38
-0.072396576 -0.03223145 0.20640709 2.3418052e-38
0.072833061 -0.045443177 0.20609489 2.3418052e-38
0.11252457 -0.037597895 0.20646626 2.3418052e-38
0.15147656 -0.031048775 0.2080247 2.3418052e-38
0.1860612 -0.02174449 0.2030866 2.3418052e-38
-0.074697971 0.0086780787 0.20568427 2.3418052e-38
-0.079330683 0.048363447 0.20726053 2.3418052e-38
-0.084172368 0.089396596 0.20649278 2.3418052e-38
-0.088263035 0.13017178 0.20542932 2.3418052e-38
-0.095856071 0.16250694 0.2071984 2.3418052e-38
-0.071761131 -0.060121059 0.24749368 2.3418052e-38
-0.048431218 -0.069660664 0.24769865 2.3418052e-38
-0.0074781775 -0.062477112 0.24903093 2.3418052e-38
0.029118359 -0.054827213 0.25029799 2.3418052e-38
-0.075414181 -0.032226801 0.24851851 2.3418052e-38
0.037302136 -0.051480532 0.25064582 2.3418052e-38
0.07508266 -0.045608163 0.25190747 2.3418052e-38
0.11753708 -0.037506819 0.25340977 2.3418052e-38
0.15546584 -0.030688882 0.25476068 2.3418052e-38
0.19057781 -0.019495368 0.25620478 2.3418052e-38
-0.07922405 0.0081464052 0.25005576 2.3418052e-38
-0.084617972 0.04814899 0.25156197 2.3418052e-38
-0.087549746 0.091246486 0.25327003 2.3418052e-38
-0.093492389 0.13133037 0.25480729 2.3418052e-38
-0.098822713 0.16569841 0.2561349 2.3418052e-38
-0.07531929 -0.067430854 0.29120401 2.3418052e-38
-0.048575699 -0.075215697 0.2898266 2.3418052e-38
-0.0072804689 -0.068647385 0.29217547 2.3418052e-38
0.033580482 -0.05937171 0.2937054 2.3418052e-38
0.065516233 -0.055419445 0.28738922 2.3418052e-38
-0.080221891 -0.029774904 0.29162091 2.3418052e-38
0.08050549 -0.050930619 0.28226432 2.3418052e-38
0.11442524 -0.044540524 0.28406638 2.3418052e-38
0.15306008 -0.036818504 0.28617567 2.3418052e-38
0.18530524 -0.028818965 0.28804249 2.3418052e-38
-0.084208786 0.0084465742 0.29303238 2.3418052e-38
-0.088078916 0.042328715 0.289893 2.3418052e-38
-0.0910151 0.084642291 0.28385711 2.3418052e-38
-0.095065713 0.1281898 0.28643808 2.3418052e-38
-0.1007297 0.1617527 0.28836802 2.3418052e-38
-0.050647736 -0.059948087 0.33401597 2.3418052e-38
-0.016475976 -0.054774284 0.33669904 2.3418052e-38
0.06651473 -0.054094911 0.31174749 2.3418052e-38
-0.070762932 -0.031337023 0.33562464 2.3418052e-38
0.0024152994 -0.049530745 0.33844128 2.3418052e-38
0.033867002 -0.044779062 0.34099662 2.3418052e-38
0.075768173 -0.042734504 0.33479452 2.3418052e-38
0.1120764 -0.038146496 0.33136523 2.3418052e-38
0.1494891 -0.034957647 0.32507294 2.3418052e-38
0.18488944 -0.029299498 0.3204174 2.3418052e-38
-0.074809194 0.012201667 0.33977702 2.3418052e-38
-0.085428238 0.051305056 0.32919455 2.3418052e-38
-0.08946979 0.088705301 0.33252239 2.3418052e-38
-0.096624851 0.12370813 0.32860821 2.3418052e-38
-0.10944742 0.16742969 0.3210367 2.3418052e-38
-0.1036486 0.16023862 0.32066512 2.3418052e-38
-0.069407761 -0.058457732 0.37317353 2.3418052e-38
-0.050778031 -0.064505935 0.37119466 2.3418052e-38
-0.0066885352 -0.058090329 0.36648524 2.3418052e-38
0.021611214 -0.052301407 0.36940789 2.3418052e-38
-0.072504938 -0.03075397 0.36475557 2.3418052e-38
0.034681857 -0.04902792 0.37084603 2.3418052e-38
0.07269305 -0.042492151 0.37473127 2.3418052e-38
0.11359221 -0.036207318 0.37891144 2.3418052e-38
0.15644878 -0.02521801 0.37206346 2.3418052e-38
0.18457657 -0.01905942 0.36823457 2.3418052e-38
-0.077185214 0.0080467463 0.36912954 2.3418052e-38
0.20277256 -0.0078499317 0.37312698 2.3418052e-38
-0.080491126 0.047747254 0.37376869 2.3418052e-38
-0.085660636 0.08651793 0.3782222 2.3418052e-38
-0.090051353 0.13162327 0.3754696 2.3418052e-38
-0.094978809 0.16903389 0.37143216 2.3418052e-38
-0.098142803 0.19125867 0.3570835 2.3418052e-38
-0.077245474 -0.064971209 0.41429296 2.3418052e-38
-0.04600805 -0.0691365 0.4086253 2.3418052e-38
-0.0084621906 -0.060715795 0.41062301 2.3418052e-38
0.025099516 -0.057140589 0.42467421 2.3418052e-38
-0.081520438 -0.033813715 0.41019332 2.3418052e-38
0.012877762 -0.051683187 0.39882648 2.3418052e-38
0.031584263 -0.049145341 0.40093404 2.3418052e-38
0.07199055 -0.043419361 0.40559503 2.3418052e-38
0.11381108 -0.035930753 0.41073078 2.3418052e-38
0.15386873 -0.029569864 0.41564071 2.3418052e-38
0.18105662 -0.024688959 0.41909155 2.3418052e-38
-0.082011998 0.0066512823 0.41031477 2.3418052e-38
0.20898575 -0.00044536591 0.42509001 2.3418052e-38
-0.084463954 0.048437119 0.40444666 2.3418052e-38
-0.087020814 0.088018656 0.40998036 2.3418052e-38
-0.091132522 0.12735164 0.41541684 2.3418052e-38
-0.098012984 0.16743958 0.42082083 2.3418052e-38
0.044229746 -0.054581046 0.43230289 2.3418052e-38
0.062876225 -0.05279839 0.43464816 2.3418052e-38
0.050128043 -0.050756216 0.43353724 2.3418052e-38
0.074975729 -0.047616243 0.43679589 2.3418052e-38
0.10870844 -0.04249239 0.44141942 2.3418052e-38
0.15249854 -0.034403682 0.44774765 2.3418052e-38
0.1866731 -0.024018288 0.45334852 2.3418052e-38
-0.090855777 0.024940133 0.43131542 2.3418052e-38
-0.093875945 0.050849676 0.43533581 2.3418052e-38
-0.099943638 0.088552475 0.44109142 2.3418052e-38
-0.10371274 0.12845123 0.44748536 2.3418052e-38
-0.11003602 0.16826844 0.45371881 2.3418052e-38
-0.10569429 0.16512799 0.45353368 2.3418052e-38
