# .PCD v0.7 - Point Cloud Data file format
VERSION 0.7
FIELDS x y z rgb
SIZE 4 4 4 4
TYPE F F F F
COUNT 1 1 1 1
WIDTH 433
HEIGHT 1
VIEWPOINT 0 0 0 1 0 0 0
POINTS 433
DATA ascii
-0.10806 -0.19088113 -0.3637577 2.3418052e-38
-0.069009125 -0.18407255 -0.36173198 2.3418052e-38
0.012695849 -0.1755873 -0.35641721 2.3418052e-38
0.083512068 -0.15877759 -0.3563346 2.3418052e-38
-0.15429181 -0.13427883 -0.36266264 2.3418052e-38
0.1050781 -0.15206957 -0.35974684 2.3418052e-38
0.1709066 -0.1342079 -0.35660973 2.3418052e-38
-0.17055759 -0.08255899 -0.36191824 2.3418052e-38
0.24961782 -0.10470653 -0.35814741 2.3418052e-38
0.29038912 -0.091521263 -0.36391601 2.3418052e-38
-0.17829272 -0.055029392 -0.36215523 2.3418052e-38
0.34383875 -0.073056579 -0.34652939 2.3418052e-38
0.35586363 -0.06667769 -0.35192534 2.3418052e-38
-0.19452313 0.026807904 -0.36276051 2.3418052e-38
-0.21119028 0.11795402 -0.36476919 2.3418052e-38
-0.20530164 0.095650911 -0.35578468 2.3418052e-38
-0.20837098 0.16086745 -0.34642634 2.3418052e-38
-0.21631786 0.18176019 -0.35952815 2.3418052e-38
-0.22964171 0.25218093 -0.3623406 2.3418052e-38
-0.13525027 -0.20139319 -0.33438262 2.3418052e-38
-0.1073243 -0.20320368 -0.3235893 2.3418052e-38
-0.070252001 -0.20091826 -0.32070765 2.3418052e-38
-0.14701784 -0.17866325 -0.32510969 2.3418052e-38
-0.049025953 -0.19112736 -0.33117011 2.3418052e-38
-0.02729845 -0.18553156 -0.32476857 2.3418052e-38
0.011886954 -0.1767481 -0.32189372 2.3418052e-38
0.05605489 -0.16388762 -0.3286275 2.3418052e-38
0.081035495 -0.15726632 -0.31542596 2.3418052e-38
-0.15789607 -0.13443464 -0.32858804 2.3418052e-38
0.098491192 -0.15168297 -0.32255647 2.3418052e-38
0.13205367 -0.13909858 -0.32525304 2.3418052e-38
0.16738439 -0.12388736 -0.32154468 2.3418052e-38
0.19195861 -0.11805117 -0.32608953 2.3418052e-38
-0.17043555 -0.097415328 -0.34337637 2.3418052e-38
-0.16471115 -0.097391367 -0.32352403 2.3418052e-38
0.21328676 -0.11029947 -0.33487502 2.3418052e-38
0.25188297 -0.10494769 -0.31810758 2.3418052e-38
0.29176211 -0.095932484 -0.32468876 2.3418052e-38
0.32679945 -0.082333326 -0.33882096 2.3418052e-38
-0.17359424 -0.056880474 -0.32813486 2.3418052e-38
-0.18043709 -0.018876433 -0.32497087 2.3418052e-38
0.4148863 -0.011255145 -0.34398398 2.3418052e-38
-0.18730745 0.025475979 -0.32785341 2.3418052e-38
-0.19216812 0.06385529 -0.32602713 2.3418052e-38
0.35013926 0.062903047 -0.3075507 2.3418052e-38
0.37293535 0.082990885 -0.31849536 2.3418052e-38
-0.19442239 0.10343623 -0.32446256 2.3418052e-38
-0.20494717 0.1440897 -0.32929066 2.3418052e-38
0.41808742 0.12845635 -0.34175268 2.3418052e-38
-0.21532866 0.18373251 -0.31736574 2.3418052e-38
-0.22651437 0.22351301 -0.33172914 2.3418052e-38
-0.23325607 0.25497973 -0.34344599 2.3418052e-38
-0.13460302 0.34724569 -0.30960283 2.3418052e-38
-0.12287599 0.39491129 -0.32738784 2.3418052e-38
-0.13927096 -0.20649618 -0.29591194 2.3418052e-38
-0.11265087 -0.20579213 -0.28596082 2.3418052e-38
-0.073941767 -0.19695133 -0.2895765 2.3418052e-38
-0.14064157 -0.17942065 -0.28286526 2.3418052e-38
-0.063363612 -0.17467421 -0.28166911 2.3418052e-38
-0.033689857 -0.1789971 -0.28057685 2.3418052e-38
0.010741949 -0.17261422 -0.28994629 2.3418052e-38
0.043254793 -0.16773212 -0.30076566 2.3418052e-38
-0.14716583 -0.131459 -0.28850552 2.3418052e-38
-0.10729277 -0.1350472 -0.2754747 2.3418052e-38
-0.083211601 -0.15157676 -0.27428284 2.3418052e-38
0.059478223 -0.12440026 -0.28765294 2.3418052e-38
0.087423265 -0.13729101 -0.29038712 2.3418052e-38
0.11762911 -0.13303524 -0.30005839 2.3418052e-38
0.17287332 -0.11910933 -0.28473321 2.3418052e-38
0.2077688 -0.11670017 -0.29488268 2.3418052e-38
-0.15381113 -0.10078454 -0.28238377 2.3418052e-38
0.011560142 -0.091238618 -0.28791055 2.3418052e-38
0.040715873 -0.11112428 -0.28769359 2.3418052e-38
0.10975724 -0.076695561 -0.28254917 2.3418052e-38
0.1303786 -0.08944869 -0.28344849 2.3418052e-38
0.15646195 -0.10870624 -0.28378251 2.3418052e-38
0.21861923 -0.091490746 -0.28010216 2.3418052e-38
0.24877053 -0.1035372 -0.27909181 2.3418052e-38
0.28953034 -0.11020458 -0.28226969 2.3418052e-38
0.32072854 -0.10035443 -0.29342428 2.3418052e-38
-0.17248264 -0.050283551 -0.29759964 2.3418052e-38
-0.16474849 -0.070010185 -0.29061177 2.3418052e-38
-0.0668028 -0.043530107 -0.28837398 2.3418052e-38
-0.029749393 -0.063909769 -0.28860727 2.3418052e-38
0.020142376 -0.044172406 -0.27283654 2.3418052e-38
0.058082223 -0.04146111 -0.28235641 2.3418052e-38
0.090610147 -0.061555862 -0.28306302 2.3418052e-38
0.18395698 -0.044650078 -0.27499482 2.3418052e-38
0.20322555 -0.061693668 -0.27445784 2.3418052e-38
-0.17777434 -0.033113837 -0.30401716 2.3418052e-38
-0.14509875 -0.006452322 -0.28761229 2.3418052e-38
-0.10981005 -0.022747517 -0.28778854 2.3418052e-38
-0.069470525 -0.01423347 -0.27623144 2.3418052e-38
0.046722829 -0.033475995 -0.28254917 2.3418052e-38
0.14281696 -0.028047204 -0.27050874 2.3418052e-38
0.16379887 -0.029335618 -0.27497754 2.3418052e-38
-0.17465529 0.028128028 -0.29647908 2.3418052e-38
-0.16470113 0.010343194 -0.29090682 2.3418052e-38
-0.071072578 0.034817219 -0.28296968 2.3418052e-38
0.25619799 0.020614624 -0.27396432 2.3418052e-38
0.28944612 0.014460325 -0.27984706 2.3418052e-38
0.31535143 0.02832675 -0.28976563 2.3418052e-38
-0.17890131 0.061835289 -0.29547808 2.3418052e-38
-0.14780962 0.073351145 -0.28416094 2.3418052e-38
-0.10860103 0.055687547 -0.28402659 2.3418052e-38
-0.19003379 0.1047076 -0.28979507 2.3418052e-38
-0.1669521 0.085093617 -0.28563258 2.3418052e-38
-0.0907498 0.10834336 -0.27050874 2.3418052e-38
-0.18900946 0.15104175 -0.28955224 2.3418052e-38
-0.1495645 0.15039039 -0.27665922 2.3418052e-38
-0.11087823 0.13555849 -0.27705601 2.3418052e-38
-0.21889332 0.18553221 -0.28032973 2.3418052e-38
-0.19437394 0.17123151 -0.27814725 2.3418052e-38
-0.23232388 0.21588409 -0.29000512 2.3418052e-38
-0.095679462 0.24070263 -0.27836493 2.3418052e-38
-0.084841847 0.23351598 -0.27745292 2.3418052e-38
-0.13816339 0.26299584 -0.28032586 2.3418052e-38
-0.11554044 0.2482276 -0.27823469 2.3418052e-38
-0.13868517 0.30480635 -0.29455391 2.3418052e-38
-0.056624293 -0.057846904 -0.25158688 2.3418052e-38
-0.027347982 -0.059904099 -0.25693992 2.3418052e-38
0.012061834 -0.065045953 -0.23957631 2.3418052e-38
0.051330388 -0.060034037 -0.23986369 2.3418052e-38
0.091451406 -0.050642967 -0.25169823 2.3418052e-38
0.1311537 -0.039991021 -0.24200132 2.3418052e-38
-0.069230139 -0.019981623 -0.24369007 2.3418052e-38
0.16966969 -0.031299829 -0.23971668 2.3418052e-38
0.20238453 -0.010929585 -0.25282744 2.3418052e-38
-0.081163049 0.022970915 -0.24203312 2.3418052e-38
-0.091166973 0.079946518 -0.24869016 2.3418052e-38
-0.085688293 0.060227156 -0.25432232 2.3418052e-38
0.28114849 0.083896875 -0.25809696 2.3418052e-38
-0.096280098 0.10568249 -0.23312709 2.3418052e-38
-0.10212255 0.14117205 -0.24407175 2.3418052e-38
-0.093744516 0.19036329 -0.26171997 2.3418052e-38
-0.061461329 -0.084032416 -0.20877701 2.3418052e-38
-0.027234674 -0.079684615 -0.2105583 2.3418052e-38
-0.0039474964 -0.075776577 -0.1905798 2.3418052e-38
-0.073012292 -0.053040862 -0.20909825 2.3418052e-38
-0.018885195 -0.073235393 -0.18852764 2.3418052e-38
0.010349512 -0.071508169 -0.20443022 2.3418052e-38
0.051854968 -0.062514305 -0.20562866 2.3418052e-38
0.089719236 -0.047124028 -0.20779216 2.3418052e-38
0.11667895 -0.044428945 -0.22443977 2.3418052e-38
-0.079659283 -0.020121694 -0.20179564 2.3418052e-38
0.10486484 -0.031045318 -0.19151261 2.3418052e-38
0.1321885 -0.026170969 -0.19818938 2.3418052e-38
0.17138726 -0.01593399 -0.20879894 2.3418052e-38
0.19547087 -0.010356784 -0.21520129 2.3418052e-38
-0.085745454 0.026149869 -0.20859283 2.3418052e-38
0.22506797 0.011572242 -0.19029447 2.3418052e-38
-0.090495169 0.067922473 -0.22153261 2.3418052e-38
-0.080685675 0.062576771 -0.19395506 2.3418052e-38
-0.082821846 0.1024636 -0.19908875 2.3418052e-38
-0.091722667 0.14999771 -0.21248034 2.3418052e-38
-0.086663544 0.13167465 -0.20751849 2.3418052e-38
-0.096068382 0.17512774 -0.21968293 2.3418052e-38
-0.063974023 -0.084964275 -0.17655697 2.3418052e-38
-0.035539985 -0.083436966 -0.1822345 2.3418052e-38
-0.064352095 -0.055499792 -0.1639514 2.3418052e-38
-0.029444873 -0.063466907 -0.15779367 2.3418052e-38
0.011789799 -0.054282308 -0.1676639 2.3418052e-38
0.053590715 -0.043621778 -0.17089713 2.3418052e-38
0.0800758 -0.038256407 -0.16230148 2.3418052e-38
-0.069342554 -0.013759613 -0.16590327 2.3418052e-38
0.097762287 -0.033041596 -0.15559205 2.3418052e-38
0.13258648 -0.025620818 -0.16374105 2.3418052e-38
0.17250496 -0.014430881 -0.17391133 2.3418052e-38
0.20115745 -0.00616014 -0.18135822 2.3418052e-38
-0.073764443 0.027481914 -0.16928607 2.3418052e-38
0.22301519 0.012364388 -0.15403977 2.3418052e-38
-0.077207625 0.058582902 -0.15753457 2.3418052e-38
-0.081720233 0.10482812 -0.16517368 2.3418052e-38
-0.092520297 0.15822303 -0.17897519 2.3418052e-38
-0.087438524 0.13979304 -0.17435819 2.3418052e-38
-0.098600268 0.17439389 -0.17401963 2.3418052e-38
-0.059260488 -0.058990598 -0.12280458 2.3418052e-38
-0.030107915 -0.064577579 -0.12582111 2.3418052e-38
0.014203846 -0.053099036 -0.13251352 2.3418052e-38
0.048360169 -0.047427297 -0.12341428 2.3418052e-38
0.08700639 -0.040384531 -0.11885011 2.3418052e-38
-0.065410435 -0.018062234 -0.13310251 2.3418052e-38
0.10685658 -0.034616232 -0.12344405 2.3418052e-38
0.12987185 -0.029402614 -0.12848425 2.3418052e-38
0.17202824 -0.020867586 -0.13331571 2.3418052e-38
0.20000458 -0.0097824335 -0.12176961 2.3418052e-38
-0.075653851 0.021624327 -0.12114346 2.3418052e-38
0.24508107 0.037382364 -0.12717274 2.3418052e-38
-0.09051168 0.067653179 -0.12041202 2.3418052e-38
-0.086970568 0.062247872 -0.11944732 2.3418052e-38
-0.09145838 0.10202062 -0.12923244 2.3418052e-38
-0.097850382 0.14476109 -0.13536623 2.3418052e-38
-0.064387381 -0.061026454 -0.090980083 2.3418052e-38
-0.029878438 -0.06773591 -0.09117192 2.3418052e-38
0.0085852742 -0.061420441 -0.084948719 2.3418052e-38
0.05280894 -0.051200867 -0.078991652 2.3418052e-38
0.091575861 -0.043723226 -0.086290717 2.3418052e-38
0.11655408 -0.038250089 -0.091211051 2.3418052e-38
-0.074193656 -0.017765522 -0.086518288 2.3418052e-38
0.13922799 -0.031904101 -0.090435654 2.3418052e-38
0.16836435 -0.025003433 -0.08354795 2.3418052e-38
0.19484049 -0.017544627 -0.073355436 2.3418052e-38
-0.081239939 0.022818685 -0.078259021 2.3418052e-38
-0.089728653 0.07866776 -0.09045127 2.3418052e-38
-0.085716069 0.060170174 -0.086525887 2.3418052e-38
-0.094586134 0.10814047 -0.092131853 2.3418052e-38
-0.10260159 0.13779294 -0.084321588 2.3418052e-38
-0.10226142 0.20214772 -0.083269477 2.3418052e-38
-0.064199746 -0.078032732 -0.031665593 2.3418052e-38
-0.041208029 -0.078495741 -0.042859524 2.3418052e-38
-0.072260261 -0.058421612 -0.047892123 2.3418052e-38
-0.027644157 -0.072798371 -0.04794082 2.3418052e-38
0.0093327165 -0.064996719 -0.039002091 2.3418052e-38
0.050767124 -0.054327965 -0.046437621 2.3418052e-38
0.09118104 -0.044327855 -0.053757876 2.3418052e-38
0.12151724 -0.03768003 -0.059176028 2.3418052e-38
-0.089121103 -0.00064694881 -0.040846586 2.3418052e-38
-0.083557844 -0.013958335 -0.038633198 2.3418052e-38
0.1044035 -0.03169632 -0.025811732 2.3418052e-38
0.13416111 -0.025045514 -0.038782984 2.3418052e-38
0.1710338 -0.013091564 -0.037296385 2.3418052e-38
0.20466977 -0.0015771389 -0.043553591 2.3418052e-38
-0.090533018 0.023928761 -0.045918882 2.3418052e-38
-0.088802993 0.03176868 -0.047763348 2.3418052e-38
-0.094996989 0.062776089 -0.053757876 2.3418052e-38
-0.096620381 0.10005438 -0.0506486 2.3418052e-38
-0.084486306 0.098855972 -0.0299007 2.3418052e-38
-0.095108747 0.14229894 -0.037385523 2.3418052e-38
-0.1005832 0.16495514 -0.041335821 2.3418052e-38
-0.079913318 0.25602102 -0.060879558 2.3418052e-38
-0.060955524 -0.05486846 -0.0030338764 2.3418052e-38
-0.028860927 -0.062443614 -0.0050205886 2.3418052e-38
0.014248967 -0.050331712 -0.011968315 2.3418052e-38
0.054271936 -0.043510675 -0.0034742951 2.3418052e-38
0.085223436 -0.038518667 0.0039495826 2.3418052e-38
-0.069938779 -0.014918208 -0.0095946193 2.3418052e-38
0.092053533 -0.032994747 -0.013489783 2.3418052e-38
0.13040251 -0.028676391 0.0027648807 2.3418052e-38
0.16926599 -0.018772602 -0.0030630231 2.3418052e-38
0.19773132 -0.0074094534 -0.0080004036 2.3418052e-38
-0.076954901 0.028132319 -0.0077602863 2.3418052e-38
-0.082808495 0.064253926 -0.0061635077 2.3418052e-38
-0.089701295 0.12001908 -0.00077947974 2.3418052e-38
-0.087379932 0.10166395 0.0021829307 2.3418052e-38
-0.096483469 0.13917065 -0.0035567582 2.3418052e-38
-0.10677296 0.18103099 -0.010037094 2.3418052e-38
-0.061595917 -0.056036234 0.026499584 2.3418052e-38
-0.024761319 -0.064224839 0.031749323 2.3418052e-38
0.0123927 -0.060123444 0.035040438 2.3418052e-38
0.049664855 -0.055935979 0.040106744 2.3418052e-38
0.092887163 -0.048570752 0.041240871 2.3418052e-38
0.12701714 -0.039909601 0.036840454 2.3418052e-38
-0.076531291 -0.013261557 0.036672458 2.3418052e-38
0.14582461 -0.034059525 0.034246519 2.3418052e-38
0.17161828 -0.028700709 0.031004101 2.3418052e-38
0.19646764 -0.025312304 0.028085932 2.3418052e-38
-0.089729249 0.039057374 0.043973744 2.3418052e-38
-0.08228296 0.020617485 0.033027306 2.3418052e-38
-0.092332065 0.063980818 0.040461138 2.3418052e-38
-0.096904755 0.10428965 0.034765303 2.3418052e-38
-0.1057294 0.13281918 0.031068936 2.3418052e-38
-0.10356289 0.18870866 0.039397269 2.3418052e-38
-0.059751928 -0.081032872 0.059148237 2.3418052e-38
-0.036423147 -0.078675985 0.05688934 2.3418052e-38
-0.067239106 -0.059035897 0.071007296 2.3418052e-38
-0.027763009 -0.060584903 0.082681537 2.3418052e-38
0.010486364 -0.052873492 0.078974694 2.3418052e-38
0.049741924 -0.042467356 0.0747796 2.3418052e-38
0.076153696 -0.036158681 0.071996152 2.3418052e-38
-0.067234159 -0.017585039 0.080114573 2.3418052e-38
0.09505111 -0.032006621 0.070019886 2.3418052e-38
0.12872636 -0.024225831 0.06640932 2.3418052e-38
0.17359501 -0.013260126 0.073300332 2.3418052e-38
0.20217919 -0.0059585571 0.069185719 2.3418052e-38
-0.071971714 0.024897814 0.075117588 2.3418052e-38
-0.078899562 0.065618277 0.07041885 2.3418052e-38
-0.085503399 0.10124016 0.066290036 2.3418052e-38
-0.094158947 0.14669871 0.075775176 2.3418052e-38
-0.08540082 0.12952149 0.062671527 2.3418052e-38
-0.099165559 0.16826582 0.091422543 2.3418052e-38
-0.061268926 -0.08019197 0.17148772 2.3418052e-38
-0.035121202 -0.078833222 0.17048788 2.3418052e-38
0.092054605 -0.049773693 0.16396728 2.3418052e-38
0.12963158 -0.04073596 0.16193107 2.3418052e-38
0.15365559 -0.03648138 0.16069871 2.3418052e-38
0.14624667 -0.033485174 0.16083822 2.3418052e-38
0.17422938 -0.028487563 0.15938729 2.3418052e-38
0.19513267 -0.020339608 0.15804796 2.3418052e-38
-0.089700878 0.039115906 0.16502361 2.3418052e-38
-0.092353463 0.063953876 0.16353548 2.3418052e-38
-0.096790969 0.10454452 0.16108935 2.3418052e-38
-0.041358709 -0.076725364 0.19861293 2.3418052e-38
-0.064348459 -0.064444304 0.19864398 2.3418052e-38
-0.021844625 -0.071423888 0.19793591 2.3418052e-38
0.011044264 -0.062265754 0.196769 2.3418052e-38
0.050084591 -0.052003622 0.19538313 2.3418052e-38
0.089977384 -0.042737603 0.19398564 2.3418052e-38
0.1160351 -0.038990617 0.19314714 2.3418052e-38
-0.076599956 -0.016000628 0.19692706 2.3418052e-38
0.13737333 -0.032190681 0.19230863 2.3418052e-38
0.17136312 -0.022521019 0.19100431 2.3418052e-38
0.19717902 -0.014512658 0.18997946 2.3418052e-38
-0.082140207 0.025085449 0.19533657 2.3418052e-38
-0.089703143 0.083068132 0.19305396 2.3418052e-38
-0.08653003 0.063002586 0.19383657 2.3418052e-38
-0.092294693 0.10493171 0.1921782 2.3418052e-38
-0.10128075 0.14304113 0.19072479 2.3418052e-38
-0.064841807 -0.058226228 0.22668715 2.3418052e-38
-0.030501485 -0.065248966 0.22643389 2.3418052e-38
0.011046767 -0.055470943 0.22574015 2.3418052e-38
0.050496459 -0.048048854 0.22510186 2.3418052e-38
0.08794558 -0.040041208 0.22446355 2.3418052e-38
-0.074919939 -0.016694307 0.22594905 2.3418052e-38
0.10219455 -0.035273433 0.22418502 2.3418052e-38
0.13057697 -0.028417826 0.22367439 2.3418052e-38
0.17116809 -0.019559622 0.22295153 2.3418052e-38
-0.081009209 0.023285508 0.22518641 2.3418052e-38
-0.089246273 0.084047437 0.22399934 2.3418052e-38
-0.085550547 0.065046668 0.22436142 2.3418052e-38
-0.094222963 0.11491716 0.22339585 2.3418052e-38
-0.08852309 0.099139094 0.22367439 2.3418052e-38
-0.10051942 0.14481723 0.22282022 2.3418052e-38
-0.10527712 0.16884482 0.22235137 2.3418052e-38
-0.064839363 -0.05819428 0.26999891 2.3418052e-38
-0.030684352 -0.06550777 0.2688629 2.3418052e-38
0.0093156099 -0.05478704 0.26921687 2.3418052e-38
0.0506019 -0.046112418 0.26866236 2.3418052e-38
0.086730599 -0.039228201 0.27122277 2.3418052e-38
-0.075395226 -0.017607212 0.26908863 2.3418052e-38
0.10764813 -0.031473875 0.26494318 2.3418052e-38
0.13160175 -0.026997089 0.27024189 2.3418052e-38
0.17105836 -0.018155575 0.26936036 2.3418052e-38
0.19821602 -0.0078400373 0.27620816 2.3418052e-38
-0.079312384 0.020967841 0.27060661 2.3418052e-38
-0.090380073 0.072799206 0.28521395 2.3418052e-38
-0.08407414 0.059285998 0.26376873 2.3418052e-38
-0.092899263 0.10571158 0.27199411 2.3418052e-38
-0.087407053 0.092407703 0.25473043 2.3418052e-38
-0.098562598 0.1443789 0.27065691 2.3418052e-38
-0.10461569 0.17039776 0.27091998 2.3418052e-38
-0.067615926 -0.063205123 0.31079358 2.3418052e-38
-0.029054761 -0.066218376 0.31156221 2.3418052e-38
0.010241747 -0.056758881 0.31288984 2.3418052e-38
0.051423788 -0.046617866 0.31432229 2.3418052e-38
0.084601939 -0.040484428 0.31541932 2.3418052e-38
-0.080175936 -0.015110135 0.31249389 2.3418052e-38
0.10528022 -0.033863425 0.31622055 2.3418052e-38
0.13076413 -0.02813983 0.31712562 2.3418052e-38
0.16822129 -0.020170212 0.31845656 2.3418052e-38
0.19773751 -0.0073900223 0.31976092 2.3418052e-38
-0.085901856 0.02583313 0.31407773 2.3418052e-38
-0.091749251 0.065262437 0.31561497 2.3418052e-38
-0.087846398 0.051240563 0.31510255 2.3418052e-38
-0.095689476 0.10230052 0.31710565 2.3418052e-38
-0.10320795 0.14352179 0.31872055 2.3418052e-38
-0.10991055 0.16847861 0.31966776 2.3418052e-38
-0.062220633 -0.077736259 0.35759318 2.3418052e-38
-0.041651726 -0.077230096 0.3669439 2.3418052e-38
-0.074132621 -0.060939431 0.3511979 2.3418052e-38
-0.025944233 -0.070465326 0.35199949 2.3418052e-38
0.01190418 -0.060882568 0.3563014 2.3418052e-38
0.050778925 -0.0527215 0.3595708 2.3418052e-38
0.088981688 -0.044189811 0.34569287 2.3418052e-38
0.11673337 -0.038005352 0.34715778 2.3418052e-38
-0.082593977 -0.014379144 0.35469055 2.3418052e-38
0.13724321 -0.032359838 0.34831572 2.3418052e-38
0.16926515 -0.025334954 0.35004103 2.3418052e-38
-0.091941118 0.030955434 0.36764452 2.3418052e-38
-0.087461829 0.017254591 0.35155007 2.3418052e-38
-0.093670011 0.065617323 0.34599185 2.3418052e-38
-0.098865509 0.10941851 0.34862265 2.3418052e-38
-0.10716003 0.14945638 0.3509545 2.3418052e-38
-0.06248343 -0.053975344 0.39655045 2.3418052e-38
-0.029652238 -0.056784749 0.39815998 2.3418052e-38
0.010305703 -0.046265006 0.40162235 2.3418052e-38
0.048342228 -0.038954616 0.40471971 2.3418052e-38
0.089368582 -0.042799115 0.38005912 2.3418052e-38
0.11887634 -0.038122058 0.37815288 2.3418052e-38
-0.074817359 -0.016501904 0.39972526 2.3418052e-38
0.065690577 -0.028111339 0.40688786 2.3418052e-38
0.092041016 -0.028708816 0.40854716 2.3418052e-38
0.13502407 -0.023959994 0.40036097 2.3418052e-38
0.16684282 -0.022005677 0.39006886 2.3418052e-38
0.19169062 -0.018483043 0.38366443 2.3418052e-38
-0.079175115 0.022909284 0.40359694 2.3418052e-38
-0.097709417 0.062080622 0.38049302 2.3418052e-38
-0.08523488 0.061262846 0.40731373 2.3418052e-38
-0.097814798 0.10397792 0.39688146 2.3418052e-38
-0.10623956 0.13648379 0.38741153 2.3418052e-38
-0.11191392 0.16873932 0.38459337 2.3418052e-38
-0.064394116 -0.059182763 0.43796086 2.3418052e-38
-0.032568574 -0.061077356 0.43213379 2.3418052e-38
0.01133579 -0.051567554 0.4307071 2.3418052e-38
0.053202331 -0.040493608 0.43517828 2.3418052e-38
0.082579076 -0.036926389 0.43788224 2.3418052e-38
-0.075158 -0.013217211 0.42937279 2.3418052e-38
0.099381208 -0.032233357 0.4397611 2.3418052e-38
0.12853241 -0.027902961 0.44261414 2.3418052e-38
0.17223054 -0.014803767 0.43690288 2.3418052e-38
0.19899869 -0.0040293932 0.42643258 2.3418052e-38
-0.081608534 0.026149035 0.43389261 2.3418052e-38
-0.089519083 0.083462596 0.44066572 2.3418052e-38
-0.085940242 0.064242363 0.43843895 2.3418052e-38
-0.093015611 0.10338378 0.44300383 2.3418052e-38
-0.098659098 0.1458112 0.43726659 2.3418052e-38
-0.10465568 0.17790699 0.4335593 2.3418052e-38
-0.073077798 -0.06419301 0.4786225 2.3418052e-38
-0.027002513 -0.064368844 0.47103173 2.3418052e-38
0.01208955 -0.0541991 0.47708243 2.3418052e-38
0.047210217 -0.046328068 0.47452992 2.3418052e-38
0.079780996 -0.037602305 0.46848637 2.3418052e-38
-0.091639876 -0.0020335913 0.48931813 2.3418052e-38
-0.080773473 -0.019207478 0.47107768 2.3418052e-38
0.1014232 -0.032684565 0.47116134 2.3418052e-38
0.13263267 -0.025556684 0.47507536 2.3418052e-38
0.17048609 -0.017142415 0.4798618 2.3418052e-38
0.20385671 0.0038554668 0.48591432 2.3418052e-38
-0.094513476 0.02064085 0.49291009 2.3418052e-38
-0.082483828 0.024481416 0.46386594 2.3418052e-38
-0.090620637 0.072278023 0.47035074 2.3418052e-38
-0.087751627 0.055627823 0.46808106 2.3418052e-38
-0.094380081 0.10516167 0.47499821 2.3418052e-38
-0.10023129 0.14549255 0.4806616 2.3418052e-38
-0.10796833 0.17284191 0.4842931 2.3418052e-38
0.061047435 -0.048638582 0.49616879 2.3418052e-38
0.088200748 -0.041936398 0.50008345 2.3418052e-38
0.13149863 -0.030509472 0.50653732 2.3418052e-38
0.17105067 -0.022971988 0.51209188 2.3418052e-38
-0.09761399 0.039171457 0.49579847 2.3418052e-38
-0.10119075 0.062926531 0.49956322 2.3418052e-38
-0.10693002 0.1058253 0.50647557 2.3418052e-38
-0.11242247 0.14714122 0.51320279 2.3418052e-38
-0.11683023 0.1724385 0.51727617 2.3418052e-38
