# .PCD v0.7 - Point Cloud Data file format
VERSION 0.7
FIELDS x y z rgb
SIZE 4 4 4 4
TYPE F F F F
COUNT 1 1 1 1
WIDTH 139
HEIGHT 1
VIEWPOINT 0 0 0 1 0 0 0
POINTS 139
DATA ascii
0.080903828 -0.0079045296 -0.57498741 2.3418052e-38
-0.063251853 0.0029382706 -0.56044281 2.3418052e-38
-0.041324139 0.014782429 -0.55657995 2.3418052e-38
0.052168667 0.021592617 -0.55991995 2.3418052e-38
-0.019840598 0.029000759 -0.55169702 2.3418052e-38
0.00068372488 0.048695564 -0.54439354 2.3418052e-38
0.0249511 0.043817997 -0.54821205 2.3418052e-38
0.22138929 0.010398388 -0.4541539 2.3418052e-38
-0.19938445 -0.043726921 -0.44973981 2.3418052e-38
-0.17908993 -0.013247013 -0.43799984 2.3418052e-38
0.16620511 0.047562599 -0.43446445 2.3418052e-38
0.19095689 0.042741299 -0.43841517 2.3418052e-38
-0.15990734 0.024226665 -0.42335629 2.3418052e-38
-0.13637561 0.023010731 -0.42502487 2.3418052e-38
0.1352005 0.08646965 -0.41609097 2.3418052e-38
-0.11686766 0.053743839 -0.41329479 2.3418052e-38
-0.096197844 0.073480606 -0.40623271 2.3418052e-38
-0.052905858 0.095603466 -0.39955032 2.3418052e-38
-0.029747963 0.095647335 -0.40092933 2.3418052e-38
-0.0069318414 0.09814167 -0.40132511 2.3418052e-38
0.013145268 0.11788797 -0.39447534 2.3418052e-38
0.03720063 0.11243582 -0.39833069 2.3418052e-38
0.10736024 0.11047697 -0.40412819 2.3418052e-38
0.058269203 0.12511778 -0.39455998 2.3418052e-38
0.081390381 0.12556362 -0.39602137 2.3418052e-38
-0.07757175 0.10673904 -0.39350998 2.3418052e-38
-0.14323866 -0.11867189 -0.35965586 2.3418052e-38
-0.19169208 -0.11627436 -0.35663092 2.3418052e-38
-0.16858363 -0.10761213 -0.35424268 2.3418052e-38
0.18692267 -0.060446739 -0.35680711 2.3418052e-38
-0.12324929 -0.084614277 -0.34737182 2.3418052e-38
-0.10002774 -0.078555584 -0.34614515 2.3418052e-38
0.15828931 -0.037408829 -0.34588718 2.3418052e-38
0.20641357 -0.035618305 -0.34874141 2.3418052e-38
0.22989339 -0.031554699 -0.34898341 2.3418052e-38
-0.082120478 -0.032670021 -0.32927346 2.3418052e-38
0.12745559 -0.00056886673 -0.32955897 2.3418052e-38
-0.063565016 0.0052084923 -0.31558371 2.3418052e-38
0.10162336 0.01031208 -0.32360423 2.3418052e-38
0.074730217 0.028377533 -0.31486201 2.3418052e-38
-0.043959379 0.033172131 -0.30583405 2.3418052e-38
-0.019262373 0.025110722 -0.31034327 2.3418052e-38
0.0039535761 0.027465343 -0.31079078 2.3418052e-38
0.026505709 0.03406477 -0.30960786 2.3418052e-38
0.047704101 0.048688889 -0.30529404 2.3418052e-38
-0.11937946 -0.1163435 -0.23828483 2.3418052e-38
-0.10381657 -0.048789024 -0.21458423 2.3418052e-38
-0.08532095 -0.0085368156 -0.20092189 2.3418052e-38
-0.064452589 0.011641979 -0.1946615 2.3418052e-38
-0.040128946 0.00644207 -0.19776881 2.3418052e-38
0.0047659874 0.022190571 -0.19450152 2.3418052e-38
0.12649089 0.0047621727 -0.20807755 2.3418052e-38
0.051739335 0.024198055 -0.19647121 2.3418052e-38
0.074474037 0.029882908 -0.1957972 2.3418052e-38
0.099486828 0.022482395 -0.20000243 2.3418052e-38
-0.021529078 0.04035902 -0.18653035 2.3418052e-38
0.026466906 0.034307957 -0.19136679 2.3418052e-38
-0.12120479 -0.10137749 -0.113662 2.3418052e-38
0.129471 -0.011705875 -0.096372247 2.3418052e-38
-0.10577756 -0.033383369 -0.091510415 2.3418052e-38
-0.087085724 0.0047707558 -0.079540849 2.3418052e-38
-0.06397903 0.0082097054 -0.079436183 2.3418052e-38
0.076960862 0.015267849 -0.084328294 2.3418052e-38
0.050830424 0.029715061 -0.078056216 2.3418052e-38
0.098323166 0.029110909 -0.080949068 2.3418052e-38
-0.045030415 0.040646076 -0.069475412 2.3418052e-38
0.025881767 0.037979126 -0.073951364 2.3418052e-38
-0.022404909 0.04625082 -0.068705797 2.3418052e-38
-0.00048458576 0.05628109 -0.066463351 2.3418052e-38
-0.11913121 -0.11837912 -0.0017324686 2.3418052e-38
-0.10519832 -0.037933826 0.02264607 2.3418052e-38
0.10303253 0.0022854805 0.025333881 2.3418052e-38
0.1302793 -0.016172409 0.018169522 2.3418052e-38
-0.084785759 -0.012571812 0.029675126 2.3418052e-38
-0.061210036 -0.011862278 0.028908253 2.3418052e-38
-0.04013288 0.0064697266 0.033658147 2.3418052e-38
-0.019852459 0.029080391 0.039727211 2.3418052e-38
0.050845444 0.029623508 0.0364784 2.3418052e-38
0.024199188 0.048535824 0.043635964 2.3418052e-38
0.071453869 0.047632217 0.040959835 2.3418052e-38
-0.000182271 0.054318428 0.046597362 2.3418052e-38
-0.1199826 -0.11139822 0.11630213 2.3418052e-38
-0.10689664 -0.024591446 0.14054 2.3418052e-38
-0.059993684 -0.020678997 0.139884 2.3418052e-38
-0.084982991 -0.011084557 0.14357114 2.3418052e-38
0.076585829 0.017472267 0.14473546 2.3418052e-38
0.10187179 0.0088973045 0.1410774 2.3418052e-38
0.12460637 0.015175819 0.14170575 2.3418052e-38
-0.040704429 0.010457993 0.14795566 2.3418052e-38
0.027759194 0.026200294 0.14948153 2.3418052e-38
0.049545288 0.03751421 0.15168464 2.3418052e-38
-0.022129118 0.044395447 0.15681624 2.3418052e-38
-0.00060880184 0.057087898 0.15949154 2.3418052e-38
-0.1232782 -0.084377289 0.23773015 2.3418052e-38
0.1318301 -0.024742126 0.24317431 2.3418052e-38
-0.1039511 -0.047732353 0.2466222 2.3418052e-38
-0.086413324 -0.00029945374 0.25834215 2.3418052e-38
-0.062627614 -0.0015869141 0.25717366 2.3418052e-38
-0.038582802 -0.0043473244 0.25558174 2.3418052e-38
-0.015701413 0.0011563301 0.25614202 2.3418052e-38
0.079167664 0.0022988319 0.25252879 2.3418052e-38
0.007710278 0.0030736923 0.25572145 2.3418052e-38
0.052432358 0.019992352 0.25825202 2.3418052e-38
0.10195822 0.0084052086 0.25308764 2.3418052e-38
0.02770102 0.026565075 0.26098585 2.3418052e-38
-0.11832702 -0.12497282 0.34028292 2.3418052e-38
-0.10365593 -0.050051212 0.35747397 2.3418052e-38
0.1362716 -0.049285889 0.34899414 2.3418052e-38
-0.08475405 -0.012811661 0.36564946 2.3418052e-38
0.10386187 -0.0024385452 0.36127341 2.3418052e-38
0.079082727 0.0027980804 0.36349666 2.3418052e-38
-0.063927889 0.007838726 0.369838 2.3418052e-38
-0.040908694 0.011883259 0.37002742 2.3418052e-38
0.054006457 0.010438919 0.36626446 2.3418052e-38
-0.020419776 0.032896996 0.37425435 2.3418052e-38
0.0031583309 0.032628536 0.37335527 2.3418052e-38
0.025798798 0.038499832 0.37389922 2.3418052e-38
-0.094598949 -0.12120533 0.4524678 2.3418052e-38
-0.078121603 -0.062822819 0.46432281 2.3418052e-38
0.11362672 -0.058061123 0.45911771 2.3418052e-38
-0.05811733 -0.0342803 0.46976507 2.3418052e-38
0.034891605 -0.018548489 0.47016573 2.3418052e-38
-0.038279414 -0.0064644814 0.47503287 2.3418052e-38
0.010266006 -0.013520241 0.47203213 2.3418052e-38
0.056372941 -0.0039234161 0.4725039 2.3418052e-38
0.080150843 -0.0034790039 0.4717623 2.3418052e-38
-0.0190624 0.023765564 0.48080128 2.3418052e-38
-0.0694381 -0.12830114 0.56142306 2.3418052e-38
-0.055138648 -0.055871964 0.57458091 2.3418052e-38
-0.03377527 -0.037895679 0.57737345 2.3418052e-38
0.088864982 -0.054691792 0.57067138 2.3418052e-38
0.013445079 -0.034161091 0.57676142 2.3418052e-38
0.059407055 -0.022337914 0.57759798 2.3418052e-38
-0.015778005 0.0016717911 0.58425826 2.3418052e-38
0.034392834 -0.015419483 0.57963812 2.3418052e-38
-0.023856699 -0.1071105 0.67401922 2.3418052e-38
0.046248317 -0.089800358 0.67510813 2.3418052e-38
0.020133018 -0.077584267 0.67775607 2.3418052e-38
-0.0089440346 -0.044300556 0.68387985 2.3418052e-38
